1002
0.00538922 0.00003232 0.02928529
0.00619682 0.00001312 0.02815725
0.00356122 0.00003858 0.03186569
0.00518583 0.00001858 0.02958290
0.00644022 0.00000781 0.02781693
0.00437290 0.00002558 0.03072736
0.00354192 0.00003057 0.03189880
0.00521553 0.00003935 0.02952578
0.00625499 0.00001297 0.02807510
0.00472961 0.00002547 0.03022302
0.00374252 0.00002451 0.03161956
0.00565577 0.00001742 0.02891921
0.00037347 0.00001765 0.03638885
0.00228471 0.00002563 0.03368022
0.00105633 0.00001716 0.03542356
0.00294759 0.00001798 0.03274844
0.00048395 0.00002719 0.03622558
0.00181791 0.00000184 0.03435786
0.00041487 0.00003583 0.03631690
0.00189764 0.00000613 0.03424195
0.00179593 0.00000152 0.03438918
0.00095166 0.00002163 0.03556828
0.00213910 0.00000880 0.03389853
0.00037986 0.00002975 0.03637090
0.00292197 0.00003104 0.03280657
0.00398332 0.00003851 0.03127406
0.00295194 0.00003772 0.03273587
0.00066260 0.00000929 0.03609366
0.00064190 0.00001249 0.03610937
0.00394957 0.00003600 0.03133245
0.00361730 0.00003430 0.03180950
0.00194716 0.00001802 0.03424018
0.00231589 0.00002165 0.03370338
0.00044456 0.00002803 0.03632259
0.00212348 0.00002325 0.03396872
0.00292966 0.00002598 0.03281716
0.00078140 0.00002834 0.03584497
0.00018303 0.00002206 0.03671770
0.00148159 0.00001748 0.03490084
0.00234854 0.00002303 0.03365138
0.00325666 0.00003676 0.03230907
0.00391313 0.00003646 0.03138201
0.00141719 0.00003271 0.03492739
0.00106779 0.00000811 0.03552571
0.00003503 0.00000571 0.03699629
0.00074839 0.00001852 0.03593324
0.00114659 0.00002207 0.03535512
0.00045803 0.00000855 0.03638608
0.00079468 0.00002787 0.03582819
0.00057505 0.00000894 0.03621895
0.00136791 0.00001712 0.03506311
0.00153498 0.00001468 0.03483720
0.00552294 0.00003773 0.02910025
0.00131604 0.00000059 0.03520639
0.00450813 0.00001834 0.03061723
0.00535623 0.00001045 0.02945119
0.00467929 0.00002676 0.03033965
0.00321461 0.00000719 0.03249358
0.00572500 0.00003346 0.02883257
0.00568097 0.00002013 0.02895109
0.00401386 0.00001185 0.03134362
0.00056777 0.00000094 0.03626308
0.00126792 0.00000311 0.03526380
0.00551159 0.00003293 0.02913659
0.00610930 0.00000767 0.02839792
0.00476774 0.00002199 0.03023471
0.00198635 0.00000236 0.03425094
0.00496265 0.00002900 0.02992950
0.00322277 0.00000282 0.03250049
0.00526295 0.00000454 0.02960801
0.00635120 0.00003875 0.02792467
0.00400789 0.00000900 0.03136409
0.00620041 0.00002262 0.02820599
0.00353993 0.00000927 0.03202474
0.00259776 0.00001597 0.03332886
0.00421916 0.00000515 0.03108157
0.00220573 0.00000701 0.03392109
0.00448615 0.00000011 0.03072526
0.00618915 0.00002399 0.02821615
0.00369077 0.00001445 0.03178958
0.00513949 0.00001042 0.02975779
0.00533841 0.00000661 0.02949255
-0.00110152 0.00441965 0.02773265
-0.00225879 0.00507850 0.02769951
0.00522841 0.00076341 0.02772925
-0.00015012 0.00386915 0.02772874
-0.00215530 0.00502605 0.02772522
-0.00242950 0.00518086 0.02771279
-0.00057829 0.00410963 0.02770495
0.00144776 0.00294317 0.02771728
0.00184461 0.00271846 0.02773292
0.00316684 0.00195450 0.02773145
-0.00206075 0.00497238 0.02772846
-0.00142697 0.00459958 0.02770452
0.00152723 0.00289862 0.02772196
0.00488079 0.00096193 0.02772075
-0.00122653 0.00448149 0.02769582
0.00385774 0.00155224 0.02771961
0.00002006 0.00376144 0.02769417
0.00592039 0.00036167 0.02772029
0.00384630 0.00155256 0.02769401
0.00483633 0.00098583 0.02771357
0.00168454 0.00279965 0.02769047
0.00274682 0.00218685 0.02769228
0.00525578 0.00074103 0.02770274
0.00546875 0.00061857 0.02770472
0.00089500 0.00325755 0.02769906
0.00243720 0.00237036 0.02771170
0.00282766 0.00217010 0.02770656
0.00493248 0.00094868 0.02771475
-0.00011083 0.00386287 0.02771217
0.00571050 0.00049189 0.02772505
0.00198673 0.00266533 0.02769337
0.00206667 0.00260492 0.02771290
0.00396302 0.00154112 0.02767005
-0.00233124 0.00512995 0.02773288
-0.00036181 0.00400601 0.02771462
0.00547991 0.00062622 0.02772344
0.00445898 0.00121940 0.02771846
0.00479187 0.00106868 0.02766157
-0.00024139 0.00392438 0.02773118
0.00347860 0.00181599 0.02767673
0.00272961 0.00223179 0.02769961
0.00621550 0.00021936 0.02769890
0.00274869 0.00222351 0.02769586
0.00124611 0.00309098 0.02769615
0.00467485 0.00110667 0.02770211
0.00460660 0.00112895 0.02772560
-0.00226443 0.00509702 0.02772514
0.00611191 0.00030192 0.02766772
0.00616861 0.00022343 0.02773042
0.00036791 0.00359174 0.02770487
0.00338442 0.00186416 0.02768523
0.00061463 0.00345234 0.02770066
0.00022523 0.00365616 0.02772950
0.00173179 0.00280397 0.02770513
0.00205978 0.00261255 0.02770790
-0.00236900 0.00518380 0.02768840
-0.00021192 0.00395651 0.02766320
0.00242935 0.00243922 0.02765253
0.00074567 0.00337992 0.02769620
-0.00050718 0.00410897 0.02768825
-0.00292832 0.00551432 0.02767784
-0.00009166 0.00388883 0.02766076
0.00023619 0.00368529 0.02768058
-0.00290765 0.00547605 0.02771448
-0.00078713 0.00428338 0.02767048
0.00049469 0.00356138 0.02764533
0.00139406 0.00302787 0.02766516
-0.00293282 0.00551816 0.02767610
0.00215023 0.00259946 0.02765379
-0.00308030 0.00557431 0.02771647
-0.00293417 0.00551907 0.02767592
0.00493623 0.00099461 0.02764868
0.00254086 0.00237432 0.02765324
-0.00074482 0.00426461 0.02766261
0.00272487 0.00225362 0.02767337
-0.00227884 0.00511788 0.02770770
-0.00074864 0.00424319 0.02769548
0.00092912 0.00331074 0.02764508
0.00394142 0.00156421 0.02765532
-0.00318222 0.00568044 0.02765067
-0.00322546 0.00567897 0.02768745
-0.00223327 0.00509407 0.02770421
-0.00269554 0.00536590 0.02769735
-0.00319745 0.00567046 0.02767679
-0.00303670 0.00557747 0.02767704
-0.00269822 0.00474984 0.02917798
-0.00121354 0.00217660 0.03337931
-0.00078597 0.00143562 0.03458912
-0.00200717 0.00354934 0.03113792
-0.00034593 0.00063162 0.03590008
-0.00173570 0.00305763 0.03193986
-0.00016249 0.00032687 0.03639819
-0.00017892 0.00035434 0.03635329
-0.00103138 0.00185068 0.03391100
-0.00083017 0.00150935 0.03446860
-0.00044157 0.00080851 0.03561173
-0.00303586 0.00532409 0.02823967
-0.00295698 0.00514696 0.02852627
-0.00036284 0.00063389 0.03589516
-0.00070230 0.00122816 0.03492508
-0.00277353 0.00487383 0.02897526
-0.00288517 0.00501621 0.02873938
-0.00286167 0.00500157 0.02876500
-0.00271076 0.00475308 0.02917166
-0.00208380 0.00364344 0.03098222
-0.00310386 0.00544498 0.02804246
-0.00308418 0.00538218 0.02814313
-0.00231648 0.00402000 0.03036552
-0.00054220 0.00095177 0.03537652
-0.00320253 0.00555242 0.02799410
-0.00300182 0.00526929 0.02834974
-0.00269792 0.00474419 0.02920467
-0.00244458 0.00428889 0.02997496
-0.00130981 0.00234517 0.03311134
-0.00287027 0.00500344 0.02884632
-0.00249518 0.00440064 0.02975279
-0.00324871 0.00566471 0.02775754
-0.00157996 0.00279183 0.03241741
-0.00200264 0.00353989 0.03117018
-0.00138021 0.00246735 0.03291149
-0.00293520 0.00516209 0.02851118
-0.00148075 0.00263077 0.03266248
-0.00145213 0.00259061 0.03271252
-0.00231962 0.00409292 0.03026103
-0.00257521 0.00449201 0.02968159
-0.00323648 0.00564492 0.02778756
-0.00315713 0.00547366 0.02812284
-0.00190012 0.00332971 0.03156703
-0.00144871 0.00256627 0.03278259
-0.00076892 0.00140132 0.03466330
-0.00303865 0.00531718 0.02829784
-0.00236746 0.00417845 0.03011703
-0.00242109 0.00425278 0.03002632
-0.00284485 0.00495971 0.02891720
-0.00220780 0.00390454 0.03055974
-0.00294612 0.00514584 0.02859575
-0.00299906 0.00520555 0.02855105
-0.00038442 0.00074526 0.03571762
-0.00297626 0.00517758 0.02857769
-0.00174186 0.00303964 0.03206772
-0.00198838 0.00347120 0.03135518
-0.00023677 0.00041801 0.03637388
-0.00185779 0.00324691 0.03171817
-0.00022481 0.00045778 0.03620540
-0.00093543 0.00167360 0.03424577
-0.00042908 0.00081102 0.03562954
-0.00095429 0.00170489 0.03419697
-0.00276720 0.00479597 0.02923334
-0.00136349 0.00240230 0.03307759
-0.00185844 0.00322211 0.03180307
-0.00159200 0.00276003 0.03255863
-0.00187108 0.00325866 0.03171831
-0.00038126 0.00069490 0.03587612
-0.00062392 0.00113088 0.03513737
-0.00011353 0.00025400 0.03655704
-0.00172006 0.00300735 0.03211107
-0.00047876 0.00087845 0.03555131
-0.00048819 0.00088428 0.03555977
-0.00061952 0.00111651 0.03517241
-0.00113848 0.00198515 0.03380574
-0.00244023 0.00423709 0.03013321
-0.00008636 0.00019898 0.03666051
-0.00153497 0.00268413 0.03264340
-0.00017768 0.00037902 0.03632907
-0.00159592 0.00276778 0.03254433
-0.00123325 0.00216294 0.03349206
-0.00136485 0.00236439 0.03320843
-0.00093225 0.00164000 0.03434870
-0.00166593 0.00290448 0.03229469
-0.00308096 0.00526125 0.02828036
-0.00271147 0.00466597 0.02928710
-0.00299643 0.00516913 0.02847277
-0.00244561 0.00419709 0.03004637
-0.00172345 0.00291339 0.03211744
-0.00277587 0.00477608 0.02910617
-0.00288883 0.00496033 0.02879643
-0.00199122 0.00340998 0.03133179
-0.00295711 0.00506250 0.02861714
-0.00181179 0.00306464 0.03186906
-0.00229592 0.00393384 0.03047322
-0.00281010 0.00484796 0.02899850
-0.00103267 0.00175045 0.03404243
-0.00095475 0.00161832 0.03426035
-0.00016636 0.00027386 0.03647190
-0.00215942 0.00372663 0.03083404
-0.00108471 0.00187469 0.03386552
-0.00106437 0.00182142 0.03393876
-0.00131901 0.00226958 0.03321233
-0.00083840 0.00143985 0.03456935
-0.00031153 0.00053648 0.03605156
-0.00148521 0.00254533 0.03275279
-0.00056896 0.00097215 0.03533233
-0.00171054 0.00295898 0.03209510
-0.00097812 0.00165143 0.03420068
-0.00069187 0.00113069 0.03505505
-0.00065276 0.00109865 0.03519602
-0.00068274 0.00111756 0.03508320
-0.00105083 0.00174797 0.03403569
-0.00119001 0.00201751 0.03366601
-0.00041573 0.00068563 0.03586455
-0.00210748 0.00358323 0.03105034
-0.00112359 0.00189996 0.03385182
-0.00277515 0.00473331 0.02915585
-0.00116272 0.00197923 0.03375086
-0.00179345 0.00305443 0.03195165
-0.00074798 0.00124809 0.03491344
-0.00134522 0.00227897 0.03322061
-0.00046010 0.00076036 0.03573723
-0.00166496 0.00282541 0.03230971
-0.00077099 0.00127760 0.03483960
-0.00260437 0.00443275 0.02963502
-0.00187005 0.00316170 0.03171337
-0.00232927 0.00396683 0.03042234
-0.00034240 0.00052026 0.03603952
-0.00150347 0.00254212 0.03276361
-0.00067256 0.00109677 0.03510933
-0.00107981 0.00181825 0.03397069
-0.00116946 0.00199363 0.03373409
-0.00029938 0.00044518 0.03616074
-0.00053883 0.00088735 0.03550652
-0.00275388 0.00469373 0.02921370
-0.00036526 0.00062297 0.03602833
-0.00009314 0.00013833 0.03678696
-0.00261048 0.00445987 0.02963184
-0.00140323 0.00241755 0.03308964
-0.00290740 0.00501409 0.02882749
-0.00316254 0.00542257 0.02807619
-0.00170599 0.00293177 0.03222428
-0.00278162 0.00475863 0.02914988
-0.00135758 0.00232046 0.03320276
-0.00186477 0.00322766 0.03179373
-0.00218273 0.00378001 0.03089583
-0.00239908 0.00414070 0.03027147
-0.00261295 0.00448940 0.02964727
-0.00189284 0.00323797 0.03168036
-0.00165421 0.00283024 0.03236022
-0.00217050 0.00372774 0.03090284
-0.00300255 0.00513763 0.02852173
-0.00324035 0.00553400 0.02783538
-0.00237861 0.00411900 0.03034156
-0.00315071 0.00544440 0.02814716
-0.00303252 0.00521477 0.02845935
-0.00212954 0.00365114 0.03101369
-0.00185681 0.00321272 0.03181518
-0.00152560 0.00263644 0.03274969
-0.00124063 0.00212623 0.03354095
-0.00203331 0.00348380 0.03128528
-0.00290689 0.00502681 0.02884096
-0.00259036 0.00445910 0.02971899
-0.00057637 0.00099482 0.03543669
-0.00328404 0.00563997 0.02773870
-0.00172960 0.00298635 0.03216967
-0.00149583 0.00256825 0.03281915
-0.00327403 -0.00137347 0.02772359
-0.00327294 -0.00320012 0.02771839
-0.00327131 -0.00030980 0.02771060
-0.00327517 0.00254701 0.02772905
-0.00327593 0.00519317 0.02773269
-0.00327566 -0.00073056 0.02773137
-0.00326936 -0.00270390 0.02770130
-0.00327137 -0.00122274 0.02771089
-0.00327269 -0.00097526 0.02771717
-0.00327291 -0.00241210 0.02771822
-0.00327508 -0.00292505 0.02772861
-0.00327345 -0.00052793 0.02772080
-0.00327033 0.00225695 0.02770590
-0.00326739 -0.00413283 0.02769185
-0.00327122 0.00548039 0.02771018
-0.00327313 0.00331346 0.02771928
-0.00327365 0.00376896 0.02772177
-0.00326719 0.00444181 0.02769091
-0.00326860 0.00214218 0.02769764
-0.00327338 0.00366782 0.02772048
-0.00326791 -0.00069294 0.02769434
-0.00326975 -0.00004640 0.02770316
-0.00326774 0.00119100 0.02769353
-0.00327044 -0.00117088 0.02770643
-0.00331726 0.00448571 0.02766786
-0.00328602 0.00013887 0.02771719
-0.00331276 0.00385190 0.02767496
-0.00328123 0.00243248 0.02772474
-0.00329042 -0.00054545 0.02771024
-0.00329409 0.00327713 0.02770443
-0.00332338 0.00412208 0.02765819
-0.00330858 0.00517752 0.02768156
-0.00331660 0.00552267 0.02766890
-0.00331606 0.00284111 0.02766974
-0.00328485 0.00448857 0.02771903
-0.00331628 0.00371324 0.02766940
-0.00327787 -0.00362969 0.02773006
-0.00328797 0.00228539 0.02771411
-0.00330714 0.00176451 0.02768384
-0.00330680 0.00204891 0.02768437
-0.00332240 0.00450032 0.02765973
-0.00327833 0.00512130 0.02772933
-0.00328146 0.00476544 0.02772438
-0.00327896 -0.00438286 0.02772833
-0.00330382 0.00109679 0.02768907
-0.00331374 0.00416803 0.02767341
-0.00328877 -0.00070872 0.02771284
-0.00328762 -0.00180097 0.02771465
-0.00329658 0.00027365 0.02770050
-0.00332091 0.00355964 0.02766209
-0.00332880 0.00548070 0.02764962
-0.00328266 -0.00209199 0.02772249
-0.00328503 -0.00235620 0.02771874
-0.00332679 -0.00502349 0.02765281
-0.00329462 -0.00424369 0.02770360
-0.00330346 -0.00096678 0.02768964
-0.00329162 -0.00466103 0.02770834
-0.00329468 -0.00395001 0.02770350
-0.00330656 -0.00065693 0.02768474
-0.00332635 0.00126857 0.02765350
-0.00332141 -0.00533189 0.02766130
-0.00330495 -0.00516864 0.02768730
-0.00331775 -0.00440170 0.02766708
-0.00328661 -0.00424865 0.02771625
-0.00330549 -0.00562007 0.02768645
-0.00332238 -0.00524542 0.02765978
-0.00331011 0.00010578 0.02767914
-0.00330362 -0.00076404 0.02768939
-0.00333273 -0.00309207 0.02764343
-0.00332612 -0.00178829 0.02765387
-0.00331388 0.00082297 0.02767318
-0.00332398 -0.00109718 0.02765724
-0.00332819 -0.00464050 0.02765060
-0.00329275 -0.00380861 0.02770656
-0.00333289 -0.00159349 0.02764318
-0.00332706 0.00036477 0.02765237
-0.00333040 -0.00390954 0.02764710
-0.00331820 -0.00296336 0.02766638
-0.00330936 -0.00565284 0.02768033
-0.00333028 0.00133975 0.02764730
-0.00331504 -0.00440731 0.02767136
-0.00329958 -0.00522172 0.02769577
-0.00331750 0.00013966 0.02766747
-0.00220792 -0.00376401 0.03073690
-0.00047185 -0.00077459 0.03563247
-0.00034246 -0.00055657 0.03599316
-0.00048470 -0.00078232 0.03560878
-0.00067782 -0.00109946 0.03507762
-0.00013577 -0.00018827 0.03658681
-0.00172342 -0.00294247 0.03209203
-0.00238862 -0.00406899 0.03023271
-0.00114491 -0.00191815 0.03374792
-0.00256263 -0.00437088 0.02974006
-0.00292428 -0.00498574 0.02872710
-0.00166384 -0.00282309 0.03227467
-0.00054850 -0.00094470 0.03538319
-0.00028149 -0.00048219 0.03613844
-0.00281016 -0.00486225 0.02898600
-0.00207312 -0.00354350 0.03110694
-0.00211986 -0.00366245 0.03094205
-0.00286632 -0.00490886 0.02887074
-0.00186410 -0.00321677 0.03166778
-0.00236159 -0.00404617 0.03028842
-0.00291228 -0.00501798 0.02871535
-0.00262858 -0.00452511 0.02951906
-0.00295130 -0.00505417 0.02863199
-0.00238601 -0.00412483 0.03018807
-0.00172912 -0.00291519 0.03211014
-0.00306865 -0.00524771 0.02833107
-0.00198498 -0.00339536 0.03141906
-0.00195931 -0.00335752 0.03149757
-0.00220606 -0.00377619 0.03079170
-0.00303657 -0.00523114 0.02845649
-0.00292346 -0.00503538 0.02877663
-0.00170987 -0.00288682 0.03216900
-0.00049796 -0.00079089 0.03560077
-0.00213359 -0.00362986 0.03097824
-0.00233487 -0.00399446 0.03042292
-0.00298147 -0.00512305 0.02860113
-0.00102893 -0.00171760 0.03410468
-0.00280578 -0.00483656 0.02911404
-0.00151993 -0.00255409 0.03270311
-0.00204955 -0.00347535 0.03120808
-0.00126988 -0.00212100 0.03341061
-0.00132589 -0.00224179 0.03327324
-0.00273254 -0.00466260 0.02927943
-0.00056976 -0.00090874 0.03539185
-0.00197647 -0.00336514 0.03142938
-0.00321310 -0.00548554 0.02791139
-0.00267707 -0.00461197 0.02947676
-0.00280220 -0.00483054 0.02912433
-0.00269105 -0.00463923 0.02943990
-0.00125188 -0.00208863 0.03346047
-0.00241727 -0.00415726 0.03020761
-0.00184626 -0.00313192 0.03179097
-0.00287629 -0.00493828 0.02889642
-0.00027432 -0.00047453 0.03629358
-0.00141211 -0.00240208 0.03303883
-0.00154423 -0.00263345 0.03266732
-0.00137164 -0.00233289 0.03315411
-0.00113711 -0.00195234 0.03383921
-0.00130993 -0.00223246 0.03333412
-0.00018528 -0.00024460 0.03648121
-0.00140472 -0.00241916 0.03308509
-0.00166124 -0.00285146 0.03234939
-0.00175980 -0.00303381 0.03208048
-0.00317100 -0.00548978 0.02809896
-0.00146906 -0.00250681 0.03288294
-0.00126882 -0.00219761 0.03348123
-0.00248487 -0.00430262 0.03004068
-0.00143009 -0.00243582 0.03299019
-0.00012340 -0.00016306 0.03667796
-0.00238266 -0.00410497 0.03031229
-0.00116557 -0.00198213 0.03374216
-0.00207483 -0.00357655 0.03118698
-0.00023001 -0.00038270 0.03640611
-0.00242199 -0.00417706 0.03020439
-0.00058839 -0.00096953 0.03536371
-0.00132484 -0.00225796 0.03329167
-0.00188717 -0.00323626 0.03170481
-0.00256650 -0.00443577 0.02980280
-0.00063928 -0.00106910 0.03522948
-0.00016118 -0.00024593 0.03658592
-0.00111591 -0.00189706 0.03388342
-0.00021721 -0.00034380 0.03642812
-0.00006251 -0.00008326 0.03687196
-0.00171803 -0.00305591 0.03194385
-0.00222406 -0.00388447 0.03058786
-0.00305822 -0.00534829 0.02819909
-0.00312465 -0.00547865 0.02798726
-0.00251767 -0.00442331 0.02971007
-0.00221446 -0.00388062 0.03059500
-0.00141482 -0.00252488 0.03281049
-0.00233596 -0.00410292 0.03023282
-0.00178731 -0.00314776 0.03179202
-0.00184338 -0.00327318 0.03158912
-0.00231489 -0.00403271 0.03034524
-0.00139440 -0.00249291 0.03286291
-0.00016798 -0.00036557 0.03633609
-0.00136414 -0.00238670 0.03303331
-0.00031465 -0.00060801 0.03593970
-0.00283717 -0.00491367 0.02890556
-0.00083592 -0.00146178 0.03454337
-0.00107872 -0.00190287 0.03382389
-0.00070482 -0.00123130 0.03491963
-0.00067117 -0.00117420 0.03501293
0.00000691 -0.00002327 0.03689346
-0.00140104 -0.00245241 0.03292609
-0.00127214 -0.00220923 0.03332240
-0.00039476 -0.00070897 0.03577325
-0.00083989 -0.00153030 0.03444311
-0.00100574 -0.00182190 0.03395975
-0.00189004 -0.00333110 0.03153514
-0.00086420 -0.00154540 0.03446469
-0.00016477 -0.00031667 0.03649960
-0.00077438 -0.00140960 0.03465249
-0.00120491 -0.00215203 0.03344638
-0.00014110 -0.00025361 0.03664033
-0.00002406 -0.00005823 0.03694662
-0.00031546 -0.00056996 0.03609946
-0.00059060 -0.00107664 0.03522095
-0.00274146 -0.00482526 0.02906332
-0.00110075 -0.00195578 0.03379379
-0.00054123 -0.00100017 0.03533025
-0.00240805 -0.00423462 0.03004977
-0.00020003 -0.00039953 0.03632707
-0.00206948 -0.00365979 0.03096808
-0.00058056 -0.00105714 0.03525637
-0.00029261 -0.00052870 0.03616966
-0.00142846 -0.00251868 0.03288318
-0.00130792 -0.00234327 0.03311232
-0.00139584 -0.00246563 0.03296386
-0.00125335 -0.00221224 0.03338868
-0.00006164 -0.00011830 0.03685717
-0.00046531 -0.00087309 0.03553009
-0.00051466 -0.00094526 0.03543508
-0.00229714 -0.00405578 0.03031893
-0.00043180 -0.00078732 0.03571758
-0.00082338 -0.00145605 0.03464245
-0.00300783 -0.00526727 0.02837391
-0.00240889 -0.00418315 0.03022137
-0.00192858 -0.00335370 0.03157168
-0.00172693 -0.00301737 0.03209954
-0.00251400 -0.00438371 0.02986328
-0.00276924 -0.00479678 0.02923669
-0.00113271 -0.00198373 0.03379468
-0.00214300 -0.00374640 0.03089526
-0.00322627 -0.00561031 0.02787208
-0.00240880 -0.00417961 0.03023273
-0.00132239 -0.00229808 0.03330480
-0.00159458 -0.00279039 0.03246646
-0.00207364 -0.00359362 0.03119865
-0.00168907 -0.00293149 0.03227329
-0.00236558 -0.00414813 0.03021251
-0.00326373 -0.00565569 0.02783012
-0.00295099 -0.00515553 0.02857830
-0.00263398 -0.00462877 0.02940163
-0.00194160 -0.00340583 0.03143774
-0.00239349 -0.00419563 0.03013634
-0.00158046 -0.00276943 0.03249490
-0.00137569 -0.00240321 0.03311197
-0.00204540 -0.00359305 0.03111973
-0.00106107 -0.00185943 0.03399802
-0.00136694 -0.00239091 0.03312734
-0.00115490 -0.00201465 0.03375660
-0.00134921 -0.00233894 0.03324733
-0.00263967 -0.00458376 0.02956572
-0.00244014 -0.00423165 0.03015145
-0.00170202 -0.00299072 0.03211584
0.00506594 -0.00085716 0.02772838
0.00492312 -0.00093883 0.02772511
0.00477270 -0.00102187 0.02770952
0.00395442 -0.00149579 0.02771521
-0.00193789 -0.00490241 0.02773175
0.00571035 -0.00047662 0.02769406
0.00432442 -0.00128196 0.02771453
0.00351069 -0.00175036 0.02770844
0.00153893 -0.00289467 0.02773166
0.00486742 -0.00096601 0.02770477
0.00148748 -0.00292106 0.02771814
0.00033315 -0.00359059 0.02773016
0.00387582 -0.00153998 0.02771033
0.00108993 -0.00314504 0.02769789
0.00139912 -0.00296561 0.02769459
-0.00222316 -0.00506192 0.02771293
0.00387867 -0.00153388 0.02769348
0.00073332 -0.00334964 0.02769343
0.00187478 -0.00269414 0.02770560
-0.00026012 -0.00392488 0.02769957
-0.00280184 -0.00539548 0.02771118
0.00460323 -0.00111657 0.02769690
-0.00084204 -0.00425812 0.02769009
-0.00064327 -0.00414934 0.02771108
-0.00234007 -0.00512912 0.02771192
-0.00112727 -0.00447300 0.02767958
0.00404761 -0.00146069 0.02771302
-0.00043015 -0.00404523 0.02771466
-0.00144170 -0.00465964 0.02767252
-0.00016345 -0.00388896 0.02771782
0.00506155 -0.00086275 0.02773032
0.00182336 -0.00275908 0.02769357
0.00297890 -0.00207542 0.02771638
-0.00280695 -0.00540961 0.02772599
0.00183091 -0.00272856 0.02772997
-0.00199998 -0.00497479 0.02768259
-0.00299307 -0.00551562 0.02772802
0.00095471 -0.00323555 0.02772856
-0.00295494 -0.00554345 0.02765865
-0.00229589 -0.00512808 0.02770707
-0.00175259 -0.00483453 0.02767898
0.00179031 -0.00277300 0.02770076
0.00029257 -0.00362182 0.02772312
-0.00077747 -0.00423980 0.02772301
-0.00162432 -0.00473105 0.02771991
0.00225143 -0.00248476 0.02773133
0.00230714 -0.00246914 0.02770828
0.00053300 -0.00349701 0.02770358
0.00213434 -0.00256758 0.02771016
-0.00129981 -0.00456960 0.02768381
-0.00013625 -0.00389774 0.02768374
0.00281547 -0.00216620 0.02772137
-0.00101037 -0.00437210 0.02772606
-0.00285332 -0.00548815 0.02765393
-0.00148149 -0.00469874 0.02765022
-0.00109381 -0.00446708 0.02766097
0.00091034 -0.00332174 0.02764483
-0.00321638 -0.00570502 0.02764389
0.00453876 -0.00118817 0.02769784
0.00371937 -0.00167882 0.02767377
0.00490568 -0.00100745 0.02765518
0.00519620 -0.00079275 0.02771956
0.00334755 -0.00189941 0.02766564
0.00125972 -0.00311584 0.02765056
0.00489938 -0.00099877 0.02767207
-0.00119980 -0.00454055 0.02764414
0.00138712 -0.00304510 0.02764670
-0.00206031 -0.00503262 0.02765066
0.00571101 -0.00054171 0.02765624
0.00658714 -0.00002625 0.02766944
0.00462223 -0.00114347 0.02769306
-0.00084560 -0.00432536 0.02765879
0.00596133 -0.00039744 0.02765589
0.00585113 -0.00045521 0.02766393
0.00379603 -0.00164356 0.02766141
0.00412697 -0.00141802 0.02770867
0.00458880 -0.00117787 0.02767237
0.00063545 -0.00346331 0.02766833
0.00600821 -0.00036804 0.02765909
0.00432731 -0.00131801 0.02768722
0.00371443 -0.00167722 0.02767987
-0.00029545 -0.00400257 0.02766586
0.00477326 -0.00108531 0.02765325
0.00663255 -0.00001386 0.02765048
0.00295314 -0.00213964 0.02764850
0.00011485 -0.00003326 0.03674308
0.00455412 -0.00003075 0.03046742
0.00039829 -0.00003971 0.03633752
0.00060215 -0.00003292 0.03605424
0.00211470 -0.00002126 0.03392396
0.00181251 -0.00002988 0.03434494
0.00063262 -0.00001127 0.03602712
0.00250157 -0.00002149 0.03337673
0.00084156 -0.00001322 0.03573023
0.00399770 -0.00003671 0.03124986
0.00449780 -0.00003930 0.03054076
0.00416769 -0.00003659 0.03100956
0.00132366 -0.00000053 0.03505777
0.00603324 -0.00002325 0.02838122
0.00467082 -0.00002478 0.03030675
0.00222296 -0.00001249 0.03377733
0.00633735 -0.00002187 0.02795217
0.00368753 -0.00000446 0.03171206
0.00247006 -0.00000474 0.03343355
0.00614056 -0.00001782 0.02823341
0.00058805 -0.00000238 0.03609668
0.00331040 -0.00001201 0.03223989
0.00112890 -0.00000073 0.03533304
0.00485063 -0.00002594 0.03005164
0.00574330 -0.00002283 0.02885143
0.00397299 -0.00003952 0.03128438
0.00221137 -0.00003129 0.03381019
0.00367719 -0.00003578 0.03171845
0.00382496 -0.00002992 0.03153425
0.00263893 -0.00003847 0.03317532
0.00422030 -0.00002923 0.03097811
0.00276235 -0.00002491 0.03305800
0.00335696 -0.00002756 0.03220599
0.00175807 -0.00003705 0.03442691
0.00384752 -0.00002169 0.03153708
0.00645423 -0.00000670 0.02791421
0.00443557 -0.00001501 0.03073370
0.00103663 -0.00003820 0.03544224
0.00559935 -0.00001058 0.02910669
0.00478357 -0.00002568 0.03019656
0.00488798 -0.00001840 0.03007965
0.00216092 -0.00003738 0.03385585
0.00377697 -0.00002618 0.03161789
0.00606152 -0.00001121 0.02845048
0.00167462 -0.00003324 0.03456100
0.00622337 -0.00001236 0.02821677
0.00306858 -0.00003059 0.03260100
0.00480214 -0.00002213 0.03018528
0.00369237 -0.00002911 0.03172516
0.00447800 -0.00003388 0.03059407
0.00285690 -0.00003297 0.03289030
0.00309847 -0.00003770 0.03252871
0.00372065 -0.00003966 0.03164065
0.00229777 -0.00001342 0.03376364
0.00260638 -0.00002178 0.03329178
0.00314549 -0.00001475 0.03255916
0.00577260 -0.00000213 0.02889743
0.00232369 -0.00001633 0.03371467
0.00018245 -0.00003896 0.03664692
0.00169221 -0.00000340 0.03466248
0.00206028 -0.00002291 0.03405929
0.00274759 -0.00000536 0.03316167
0.00046119 -0.00003607 0.03626498
0.00236334 -0.00000618 0.03370159
0.00008694 -0.00003359 0.03680472
0.00066672 -0.00001964 0.03604390
0.00231415 -0.00002516 0.03369073
0.00179758 -0.00000569 0.03450377
0.00181203 -0.00002534 0.03440007
0.00359157 -0.00000628 0.03196422
0.00097270 -0.00001226 0.03564246
0.00227759 -0.00000989 0.03380714
0.00410356 -0.00000157 0.03126012
0.00164123 -0.00000779 0.03471600
0.00085009 -0.00003366 0.03572518
0.00054306 -0.00002768 0.03618471
0.00200092 -0.00002148 0.03414934
0.00239469 -0.00001050 0.03363895
0.00194045 -0.00000527 0.03430348
0.00159814 -0.00001115 0.03476270
0.00212610 -0.00001768 0.03398836
0.00069488 -0.00001827 0.03600992
0.00220686 -0.00002118 0.03385935
0.00176343 -0.00272491 0.02767433
-0.00274185 -0.00534162 0.02768288
-0.00099747 -0.00431000 0.02766961
0.00117655 -0.00305641 0.02767040
-0.00081626 -0.00422274 0.02767896
-0.00056827 -0.00408043 0.02767943
-0.00292326 -0.00542344 0.02767052
-0.00155646 -0.00463368 0.02767013
-0.00284063 -0.00538863 0.02767747
0.00303794 -0.00198141 0.02767017
-0.00266055 -0.00526610 0.02766745
-0.00099465 -0.00432586 0.02767904
0.00335623 -0.00183022 0.02768770
0.00409933 -0.00140165 0.02768792
0.00168091 -0.00279681 0.02768741
0.00089763 -0.00324425 0.02768485
0.00146521 -0.00291182 0.02768229
0.00205842 -0.00257860 0.02768726
0.00352803 -0.00170584 0.02767414
0.00411626 -0.00138936 0.02768657
0.00244495 -0.00234845 0.02768348
0.00311204 -0.00197108 0.02768764
0.00499305 -0.00088219 0.02768602
0.00307674 -0.00197344 0.02767794
0.00552183 -0.00055843 0.02766360
0.00581197 -0.00046055 0.02764956
0.00592764 -0.00033408 0.02766160
0.00353428 -0.00171498 0.02766176
0.00552574 -0.00054730 0.02766540
0.00128254 -0.00299361 0.02766606
0.00248333 -0.00231266 0.02766358
0.00601108 -0.00031655 0.02765542
0.00359498 -0.00173121 0.02765141
0.00314243 -0.00193557 0.02766290
0.00652955 -0.00005623 0.02764755
0.00208825 -0.00256614 0.02765846
-0.00089069 -0.00426122 0.02766343
0.00297689 -0.00207092 0.02765487
0.00328958 -0.00186515 0.02765996
0.00637860 -0.00011820 0.02765263
0.00375684 -0.00161018 0.02765698
0.00517462 -0.00080046 0.02765521
-0.00063145 -0.00410736 0.02766428
0.00633542 -0.00010582 0.02766016
0.00518002 -0.00076943 0.02766084
0.00509317 -0.00086398 0.02765188
0.00636803 -0.00012899 0.02765168
0.00268000 -0.00220488 0.02766242
0.00443215 -0.00118221 0.02766467
0.00288843 -0.00210142 0.02765902
0.00280931 -0.00212553 0.02766337
0.00099988 -0.00316636 0.02766412
0.00644925 -0.00004678 0.02765881
-0.00234856 -0.00518696 0.02764655
-0.00066254 -0.00419212 0.02765084
-0.00262460 -0.00534376 0.02764706
0.00361533 -0.00175684 0.02764390
-0.00023354 -0.00397528 0.02764465
-0.00110747 -0.00443020 0.02765462
0.00061432 -0.00342776 0.02765630
-0.00227325 -0.00510428 0.02765442
-0.00128578 -0.00454891 0.02765146
-0.00242705 -0.00519022 0.02765499
-0.00269506 -0.00539408 0.02764513
-0.00327795 -0.00572291 0.02764668
0.00207576 -0.00260519 0.02765204
0.00166107 -0.00288955 0.02764302
0.00122282 -0.00308327 0.02765493
0.00288004 -0.00216287 0.02764761
-0.00242807 -0.00522183 0.02764876
0.00472862 -0.00110277 0.02764617
-0.00270353 -0.00532853 0.02765927
-0.00274269 -0.00532225 0.02766507
-0.00212377 -0.00504625 0.02764874
-0.00255830 -0.00523730 0.02766076
-0.00160133 -0.00472625 0.02765243
-0.00154693 -0.00471009 0.02764937
0.00293308 -0.00213115 0.02764783
-0.00226675 -0.00507970 0.02765860
-0.00288001 -0.00548124 0.02764907
0.00344591 -0.00183310 0.02764823
0.00263353 -0.00230757 0.02764714
-0.00190577 -0.00488599 0.02765565
-0.00323340 0.00020687 0.02766912
-0.00325136 0.00210071 0.02768028
-0.00323839 0.00234179 0.02767222
-0.00325066 0.00123374 0.02767984
-0.00323318 0.00328798 0.02766898
-0.00323064 -0.00433154 0.02766740
-0.00324321 0.00376192 0.02767521
-0.00324374 0.00561050 0.02767554
-0.00323433 -0.00167757 0.02766969
-0.00323182 -0.00220054 0.02766814
-0.00324448 -0.00117407 0.02767600
-0.00325638 0.00538242 0.02768340
-0.00325635 -0.00317048 0.02768338
-0.00326242 0.00196131 0.02768715
-0.00325021 -0.00336544 0.02767956
-0.00326591 0.00173058 0.02768932
-0.00324892 -0.00348737 0.02767876
-0.00324327 -0.00484749 0.02767525
-0.00325659 -0.00429154 0.02768353
-0.00326498 -0.00237335 0.02768874
-0.00324548 -0.00476298 0.02767663
-0.00325879 -0.00484005 0.02768490
-0.00326288 -0.00186364 0.02768744
-0.00325967 -0.00194325 0.02768544
-0.00324271 0.00349573 0.02766404
-0.00327120 0.00032627 0.02765740
-0.00323851 -0.00167930 0.02766502
-0.00325372 -0.00411191 0.02766147
-0.00329730 -0.00540842 0.02765132
-0.00325650 0.00189614 0.02766082
-0.00324573 0.00129731 0.02766334
-0.00325167 0.00054731 0.02766195
-0.00326897 -0.00458111 0.02765792
-0.00324049 0.00274738 0.02766456
-0.00331449 -0.00480376 0.02764731
-0.00326342 -0.00027583 0.02765921
-0.00324106 0.00084245 0.02766442
-0.00323664 -0.00337024 0.02766545
-0.00327798 -0.00492123 0.02765582
-0.00328008 -0.00013223 0.02765533
-0.00324145 0.00045266 0.02766433
-0.00324575 -0.00306919 0.02766333
-0.00331680 -0.00460537 0.02764677
-0.00325589 0.00034834 0.02766097
-0.00325940 -0.00076205 0.02766015
-0.00333068 -0.00568412 0.02764354
-0.00329810 -0.00335378 0.02765113
-0.00324294 -0.00025067 0.02766399
-0.00330388 -0.00447264 0.02764979
-0.00326940 -0.00114725 0.02765782
-0.00329446 -0.00448065 0.02765198
-0.00324291 0.00061789 0.02766399
-0.00324319 0.00386101 0.02766393
-0.00332699 0.00064948 0.02764440
-0.00333048 -0.00067532 0.02764359
-0.00333000 -0.00294924 0.02764370
-0.00329769 -0.00012212 0.02765123
-0.00332570 -0.00031798 0.02764470
-0.00328055 0.00314283 0.02765522
-0.00330818 0.00040342 0.02764878
-0.00330127 -0.00142005 0.02765039
-0.00330638 0.00090760 0.02764920
-0.00329550 0.00390235 0.02765174
-0.00333256 -0.00314495 0.02764310
-0.00328938 0.00101864 0.02765317
-0.00328030 0.00084676 0.02765528
-0.00327855 0.00136169 0.02765569
-0.00328236 0.00376810 0.02765480
-0.00332713 0.00075163 0.02764437
-0.00326598 0.00304023 0.02765862
-0.00331972 0.00297058 0.02764609
-0.00332282 0.00506935 0.02764537
-0.00330494 0.00156431 0.02764954
-0.00333202 -0.00411384 0.02764323
-0.00333153 -0.00514580 0.02764335
-0.00324815 0.00370695 0.02766277
-0.00332530 -0.00164638 0.02764479
-0.00332658 -0.00148590 0.02764450
-0.00332116 0.00298675 0.02764576
-0.00332187 -0.00427005 0.02764559
-0.00329043 0.00307371 0.02765292
-0.00333166 0.00512306 0.02764331
-0.00330434 -0.00026040 0.02764968
0.00320303 0.00190718 0.02768150
0.00560448 0.00050255 0.02767166
0.00060965 0.00339180 0.02767476
0.00283639 0.00209200 0.02766706
0.00376972 0.00155708 0.02766915
0.00199245 0.00258434 0.02766982
0.00520695 0.00074950 0.02768106
0.00142806 0.00291824 0.02767417
0.00501352 0.00083770 0.02766843
-0.00112282 0.00438371 0.02767033
0.00342154 0.00177493 0.02767822
0.00485891 0.00092996 0.02767005
0.00266972 0.00222336 0.02768598
-0.00211188 0.00495606 0.02767107
-0.00244811 0.00516079 0.02767680
-0.00176445 0.00478825 0.02768873
0.00264394 0.00224006 0.02768697
0.00392442 0.00150401 0.02768867
0.00320012 0.00191126 0.02768280
0.00575210 0.00045105 0.02768982
-0.00056009 0.00409370 0.02768912
-0.00185556 0.00483522 0.02768570
-0.00263477 0.00526274 0.02767367
0.00243570 0.00236410 0.02768903
-0.00020951 0.00388940 0.02768809
0.00067641 0.00340080 0.02765456
0.00191046 0.00268047 0.02765615
0.00104767 0.00318104 0.02765565
-0.00246140 0.00524646 0.02764769
0.00483015 0.00094266 0.02766665
0.00101006 0.00315264 0.02766571
-0.00271688 0.00535886 0.02765474
0.00227573 0.00245635 0.02765881
0.00070380 0.00336022 0.02765954
-0.00200619 0.00492939 0.02765859
0.00001698 0.00372384 0.02766614
-0.00169012 0.00470968 0.02766607
-0.00298677 0.00547310 0.02766308
0.00081254 0.00331132 0.02765675
-0.00222824 0.00508076 0.02765394
-0.00181682 0.00478846 0.02766494
-0.00276536 0.00540173 0.02765175
-0.00258801 0.00533381 0.02764483
-0.00157505 0.00471078 0.02765251
-0.00241385 0.00517081 0.02765737
0.00214717 0.00253187 0.02765855
-0.00317283 0.00566737 0.02764564
-0.00124967 0.00447308 0.02766252
0.00124704 0.00306937 0.02765496
0.00605927 0.00023387 0.02766649
0.00503461 0.00083227 0.02766512
0.00019535 0.00367553 0.02765516
0.00156450 0.00285399 0.02766141
0.00459696 0.00109728 0.02766263
0.00619248 0.00024937 0.02764785
0.00336947 0.00185516 0.02765271
0.00342036 0.00186296 0.02764521
0.00544648 0.00063365 0.02765722
0.00546830 0.00059138 0.02766320
0.00518783 0.00081713 0.02765033
0.00064318 0.00344101 0.02765033
0.00228604 0.00248290 0.02765226
0.00501545 0.00085167 0.02766344
0.00484857 0.00102466 0.02764798
0.00381629 0.00162985 0.02764612
0.00509290 0.00087476 0.02764976
0.00191954 0.00272225 0.02764666
-0.00001333 0.00381941 0.02765046
0.00545275 0.00063973 0.02765526
0.00033831 0.00364105 0.02764548
0.00413684 0.00142164 0.02765079
-0.00088673 0.00434850 0.02764545
0.00526299 0.00080421 0.02764418
0.00539682 0.00071054 0.02764749
0.00528813 0.00071515 0.02765922
0.00206118 0.00260731 0.02765336
0.00509000 0.00083156 0.02765881
0.00247335 0.00235188 0.02765688
0.00598130 0.00034626 0.02765290
0.00193299 0.00270946 0.02764768
0.00032156 0.00363763 0.02764812
0.00356305 0.00175996 0.02764937
0.00381776 0.00157272 0.02765748
0.00453699 0.00121557 0.02764575
