1385
-0.00238519 0.00408157 0.03027961
-0.00277837 0.00476563 0.02917024
-0.00283522 0.00488758 0.02903030
-0.00291327 0.00498580 0.02877675
-0.00240352 0.00412689 0.03023982
-0.00178373 0.00307862 0.03201525
-0.00268000 0.00464138 0.02948943
-0.00047672 0.00082490 0.03572094
-0.00104927 0.00181708 0.03410196
-0.00270460 0.00463522 0.02937658
-0.00305405 0.00527171 0.02841590
-0.00221489 0.00380572 0.03077826
-0.00167579 0.00290117 0.03232895
-0.00252201 0.00433387 0.02990622
-0.00244976 0.00418763 0.03009186
-0.00187793 0.00324006 0.03174729
-0.00151160 0.00261115 0.03278835
-0.00234877 0.00405630 0.03041620
-0.00153865 0.00263698 0.03269320
-0.00193541 0.00331466 0.03156254
-0.00132942 0.00227280 0.03328342
-0.00177708 0.00306054 0.03202820
-0.00196983 0.00336771 0.03145938
-0.00207634 0.00356514 0.03116961
-0.00136394 0.00235544 0.03320603
-0.00200017 0.00342101 0.03137422
-0.00110585 0.00190454 0.03393257
-0.00198101 0.00338551 0.03142637
-0.00283821 0.00487546 0.02900648
-0.00288421 0.00498124 0.02889956
-0.00250905 0.00430205 0.02993457
-0.00290543 0.00497121 0.02879802
-0.00313595 0.00536284 0.02813924
-0.00191065 0.00329193 0.03165048
-0.00256838 0.00441129 0.02977250
-0.00215939 0.00373462 0.03095747
-0.00225737 0.00390270 0.03067887
-0.00269325 0.00460170 0.02939640
-0.00246802 0.00425087 0.03006826
-0.00313733 0.00536147 0.02813198
-0.00204811 0.00350144 0.03123630
-0.00307577 0.00532385 0.02836736
-0.00312608 0.00534092 0.02816290
-0.00309028 0.00534267 0.02832070
-0.00285765 0.00491902 0.02896028
-0.00317550 0.00543608 0.02803159
-0.00141308 0.00243374 0.03306099
-0.00303454 0.00521898 0.02845427
-0.00258969 0.00443463 0.02970023
-0.00188581 0.00323954 0.03171242
-0.00139221 0.00240905 0.03313019
-0.00308351 0.00530247 0.02831461
-0.00170601 0.00292634 0.03221937
-0.00081198 0.00138699 0.03475618
-0.00210885 0.00365248 0.03110517
-0.00309280 0.00532558 0.02829453
-0.00277857 0.00480732 0.02920637
-0.00146650 0.00252697 0.03291054
-0.00296936 0.00510358 0.02863639
-0.00327599 0.00387270 0.02773296
-0.00327057 -0.00269973 0.02770704
-0.00326955 -0.00479208 0.02770221
-0.00327584 0.00250891 0.02773225
-0.00327306 -0.00075360 0.02771896
-0.00327562 -0.00077479 0.02773120
-0.00327412 0.00268876 0.02772400
-0.00327108 -0.00547337 0.02770952
-0.00327241 -0.00151445 0.02771587
-0.00327201 -0.00469515 0.02771395
-0.00327445 -0.00453378 0.02772557
-0.00327113 -0.00071329 0.02770971
-0.00327590 -0.00331257 0.02773251
-0.00327305 -0.00560588 0.02771889
-0.00327427 0.00306164 0.02772476
-0.00327422 -0.00175102 0.02772451
-0.00327561 -0.00292485 0.02773115
-0.00327483 0.00342537 0.02772741
-0.00327060 -0.00123580 0.02770722
-0.00327189 -0.00395199 0.02771336
-0.00327418 -0.00055271 0.02772428
-0.00327018 -0.00184534 0.02770521
-0.00326904 -0.00512001 0.02769975
-0.00327143 -0.00038027 0.02771118
-0.00327395 -0.00513315 0.02772320
-0.00326920 -0.00545493 0.02770051
-0.00327389 -0.00011127 0.02772294
-0.00327298 0.00130117 0.02771857
-0.00327571 0.00424981 0.02773161
-0.00327495 -0.00380799 0.02772797
-0.00327512 -0.00453961 0.02772878
-0.00327370 -0.00385100 0.02772202
-0.00327086 -0.00103708 0.02770846
-0.00327272 -0.00197483 0.02771732
-0.00327258 -0.00309395 0.02771668
-0.00326799 -0.00472866 0.02769473
-0.00327530 0.00243865 0.02772968
-0.00327309 0.00096583 0.02771909
-0.00327427 0.00230657 0.02772473
-0.00327592 -0.00423149 0.02773261
-0.00327560 0.00366044 0.02773107
-0.00327157 -0.00061617 0.02771181
-0.00326935 -0.00424674 0.02770122
-0.00327187 0.00034710 0.02771326
-0.00327056 -0.00309376 0.02770700
-0.00327580 0.00096631 0.02773204
-0.00327306 -0.00071220 0.02771893
-0.00327476 0.00008102 0.02772709
-0.00327477 -0.00345852 0.02772713
-0.00327367 0.00054292 0.02772189
-0.00327497 0.00167167 0.02772807
-0.00327429 -0.00030924 0.02772483
-0.00327151 -0.00162516 0.02771155
-0.00327372 -0.00395072 0.02772209
-0.00327139 -0.00171243 0.02771100
-0.00327329 -0.00463356 0.02772007
-0.00327564 0.00390397 0.02773129
-0.00327378 -0.00445585 0.02772239
-0.00327544 -0.00056697 0.02773032
-0.00326905 -0.00476106 0.02769982
-0.00327036 -0.00211844 0.02770606
-0.00327346 -0.00338128 0.02772086
-0.00327410 0.00172378 0.02772390
-0.00327430 -0.00127379 0.02772489
-0.00327190 -0.00419619 0.02771343
-0.00327231 -0.00181479 0.02771537
-0.00327373 -0.00259262 0.02772213
-0.00327570 -0.00313250 0.02773157
-0.00327347 -0.00409369 0.02772091
-0.00327249 -0.00400875 0.02771621
-0.00327144 -0.00116274 0.02771122
-0.00327204 0.00052692 0.02771408
-0.00327462 -0.00294630 0.02772639
-0.00327370 -0.00207341 0.02772203
-0.00327379 -0.00411330 0.02772243
-0.00327121 -0.00355169 0.02771014
-0.00327386 -0.00491844 0.02772279
-0.00327453 -0.00419160 0.02772596
-0.00327560 0.00187372 0.02773109
-0.00327099 -0.00489944 0.02770906
-0.00327063 -0.00202176 0.02770736
-0.00327133 -0.00403562 0.02771070
-0.00327487 -0.00042370 0.02772759
-0.00327185 -0.00168718 0.02771316
-0.00327593 0.00415118 0.02773267
-0.00326959 -0.00410815 0.02770237
-0.00326921 -0.00485583 0.02770058
-0.00327525 0.00024857 0.02772941
-0.00327441 -0.00498749 0.02772538
-0.00327020 -0.00203581 0.02770529
-0.00327213 -0.00069564 0.02771452
-0.00327251 -0.00529193 0.02771630
-0.00327508 0.00074733 0.02772859
-0.00327429 -0.00232930 0.02772485
-0.00327161 -0.00344587 0.02771201
-0.00327092 -0.00405195 0.02770874
-0.00327465 -0.00487177 0.02772654
-0.00326820 -0.00488042 0.02769575
-0.00327338 0.00183840 0.02772050
-0.00327139 -0.00073587 0.02771099
-0.00327488 -0.00023081 0.02772763
-0.00327426 0.00188596 0.02772470
-0.00327453 -0.00476242 0.02772596
-0.00327568 -0.00364262 0.02773145
-0.00327553 0.00138027 0.02773077
-0.00327584 0.00148570 0.02773222
-0.00327022 -0.00289151 0.02770540
-0.00327048 -0.00317695 0.02770661
-0.00327211 -0.00485619 0.02771439
-0.00327338 0.00071169 0.02772046
-0.00327568 0.00427261 0.02773147
-0.00326762 -0.00492833 0.02769297
-0.00327319 -0.00444121 0.02771956
-0.00327517 0.00418231 0.02772902
-0.00327173 -0.00215084 0.02771262
-0.00327294 -0.00158531 0.02771838
-0.00327353 -0.00508307 0.02772119
-0.00327409 0.00001696 0.02772387
-0.00327512 0.00006472 0.02772879
-0.00327123 -0.00482738 0.02771019
-0.00327085 -0.00186106 0.02770839
-0.00326833 0.00085129 0.02769636
-0.00327309 0.00533159 0.02771911
-0.00326901 0.00026524 0.02769961
-0.00327085 0.00186783 0.02770840
-0.00326813 0.00558182 0.02769540
-0.00327007 0.00291180 0.02770467
-0.00327240 0.00404372 0.02771581
-0.00326710 -0.00549878 0.02769047
-0.00326861 0.00174718 0.02769771
-0.00326800 0.00488628 0.02769480
-0.00326892 0.00294371 0.02769919
-0.00327050 -0.00114851 0.02770673
-0.00327221 0.00214462 0.02771489
-0.00327099 0.00229779 0.02770907
-0.00326729 -0.00158830 0.02769139
-0.00327157 0.00230333 0.02771185
-0.00326800 -0.00437932 0.02769479
-0.00327076 -0.00010455 0.02770795
-0.00326926 -0.00150775 0.02770081
-0.00326921 -0.00139005 0.02770056
-0.00327275 0.00536044 0.02771746
-0.00326714 -0.00085175 0.02769069
-0.00326823 0.00362289 0.02769589
-0.00326924 0.00510735 0.02770072
-0.00326710 -0.00102493 0.02769050
-0.00326704 0.00291455 0.02769017
-0.00326941 0.00089834 0.02770152
-0.00327052 0.00508502 0.02770681
-0.00327074 0.00023976 0.02770788
-0.00326974 0.00459349 0.02770309
-0.00327039 -0.00004903 0.02770622
-0.00326721 -0.00213281 0.02769101
-0.00327032 0.00004136 0.02770588
-0.00327119 0.00240702 0.02771000
-0.00326982 -0.00113483 0.02770347
-0.00326755 -0.00204541 0.02769262
-0.00327299 0.00350292 0.02771862
-0.00326796 -0.00302639 0.02769460
-0.00326920 -0.00134937 0.02770049
-0.00326731 0.00198811 0.02769149
-0.00326708 0.00204160 0.02769039
-0.00326822 0.00098596 0.02769581
-0.00327066 0.00316829 0.02770747
-0.00326813 0.00555606 0.02769538
-0.00326869 0.00093032 0.02769808
-0.00326770 -0.00354481 0.02769334
-0.00326936 0.00205430 0.02770128
-0.00326712 0.00095090 0.02769058
-0.00327303 0.00370176 0.02771882
-0.00327049 0.00224819 0.02770666
-0.00327306 0.00478569 0.02771895
-0.00326874 -0.00157943 0.02769833
-0.00326804 -0.00069234 0.02769497
-0.00327109 0.00103449 0.02770953
-0.00327459 0.00541956 0.02772625
-0.00327399 0.00462562 0.02772341
-0.00326876 0.00485147 0.02769840
-0.00326854 0.00431312 0.02769736
-0.00327428 0.00456236 0.02772476
-0.00327106 0.00391155 0.02770939
-0.00326768 -0.00128759 0.02769325
-0.00326821 0.00558713 0.02769576
-0.00326866 0.00180763 0.02769792
-0.00326823 0.00011883 0.02769589
-0.00326977 -0.00177393 0.02770322
-0.00326849 -0.00110254 0.02769711
-0.00326882 0.00482450 0.02769870
-0.00326742 -0.00405770 0.02769200
-0.00326955 -0.00155145 0.02770220
-0.00327335 0.00323135 0.02772036
-0.00326843 0.00017104 0.02769682
-0.00326820 -0.00003872 0.02769573
-0.00326779 0.00000770 0.02769379
-0.00327374 0.00395588 0.02772218
-0.00326794 -0.00081352 0.02769447
-0.00327070 0.00176933 0.02770769
-0.00326965 0.00329135 0.02770266
-0.00326928 0.00435054 0.02770091
-0.00326734 -0.00361339 0.02769164
-0.00327044 -0.00081591 0.02770642
-0.00327134 0.00463418 0.02771076
-0.00326737 0.00553439 0.02769179
-0.00326941 0.00325207 0.02770152
-0.00327132 0.00200439 0.02771063
-0.00327063 -0.00107757 0.02770736
-0.00327105 0.00427483 0.02770935
-0.00326913 0.00109397 0.02770018
-0.00326766 0.00434797 0.02769314
-0.00326717 0.00103520 0.02769081
-0.00326762 -0.00400631 0.02769294
-0.00326755 0.00134131 0.02769265
-0.00326826 -0.00038285 0.02769602
-0.00326752 -0.00169542 0.02769247
-0.00326879 0.00288264 0.02769854
-0.00327238 0.00199367 0.02771572
-0.00326962 0.00304949 0.02770252
-0.00326893 -0.00074207 0.02769922
-0.00327084 0.00210536 0.02770833
-0.00326868 0.00239017 0.02769802
-0.00327399 0.00364871 0.02772341
-0.00326852 0.00300464 0.02769724
-0.00326780 0.00396252 0.02769382
-0.00327457 0.00479916 0.02772619
-0.00326841 -0.00323228 0.02769675
-0.00326784 -0.00341328 0.02769401
-0.00327081 0.00414323 0.02770822
-0.00326828 0.00118469 0.02769614
-0.00326857 0.00075085 0.02769749
-0.00326992 0.00243265 0.02770397
-0.00327241 0.00219134 0.02771587
-0.00327031 0.00425439 0.02770581
-0.00327142 0.00428365 0.02771114
-0.00327302 0.00502867 0.02771875
-0.00327108 0.00051539 0.02770952
-0.00327078 0.00118569 0.02770808
-0.00326914 0.00434247 0.02770021
-0.00326973 0.00211438 0.02770305
-0.00326825 0.00320188 0.02769599
-0.00327020 0.00119802 0.02770528
-0.00327152 0.00422585 0.02771158
-0.00327285 0.00179925 0.02771797
-0.00326712 0.00532697 0.02769058
-0.00327175 0.00408452 0.02771270
-0.00330415 0.00159620 0.02768855
-0.00331155 0.00327039 0.02767687
-0.00329132 0.00550190 0.02770881
-0.00328476 -0.00228235 0.02771917
-0.00328527 0.00125375 0.02771836
-0.00330797 0.00145183 0.02768253
-0.00329027 0.00195754 0.02771047
-0.00328367 0.00110773 0.02772089
-0.00327650 0.00454025 0.02773221
-0.00330975 0.00567453 0.02767971
-0.00329024 0.00262491 0.02771052
-0.00328527 0.00323894 0.02771837
-0.00329880 0.00285617 0.02769700
-0.00332993 0.00521317 0.02764785
-0.00328085 0.00192938 0.02772534
-0.00328087 -0.00015366 0.02772531
-0.00327876 -0.00473669 0.02772864
-0.00329121 0.00470356 0.02770898
-0.00329722 0.00181461 0.02769950
-0.00328384 -0.00220184 0.02772062
-0.00328593 -0.00046440 0.02771732
-0.00328085 -0.00277105 0.02772534
-0.00330095 0.00557042 0.02769361
-0.00329635 0.00201718 0.02770087
-0.00329375 -0.00040019 0.02770498
-0.00329086 0.00335836 0.02770954
-0.00328155 -0.00126645 0.02772424
-0.00328144 0.00357995 0.02772441
-0.00330317 0.00540127 0.02769009
-0.00331305 0.00278649 0.02767449
-0.00330256 0.00059951 0.02769107
-0.00327664 -0.00207402 0.02773198
-0.00330909 0.00199860 0.02768075
-0.00330092 0.00564942 0.02769365
-0.00328023 -0.00270888 0.02772632
-0.00328477 -0.00342771 0.02771915
-0.00330091 0.00465456 0.02769368
-0.00328844 -0.00076799 0.02771336
-0.00331818 0.00353425 0.02766640
-0.00331412 0.00442202 0.02767281
-0.00330977 0.00541092 0.02767967
-0.00328188 -0.00440476 0.02772372
-0.00328288 -0.00034617 0.02772213
-0.00327672 -0.00231318 0.02773186
-0.00330379 0.00165332 0.02768912
-0.00328959 0.00496328 0.02771154
-0.00330022 0.00349390 0.02769477
-0.00332477 0.00431545 0.02765600
-0.00329840 0.00421609 0.02769763
-0.00329683 0.00260415 0.02770011
-0.00330346 0.00305447 0.02768964
-0.00328885 0.00180074 0.02771271
-0.00328129 0.00445569 0.02772464
-0.00328909 -0.00188813 0.02771233
-0.00328683 -0.00099959 0.02771590
-0.00327630 -0.00328392 0.02773253
-0.00329904 -0.00044452 0.02769662
-0.00328599 0.00020872 0.02771722
-0.00331570 0.00522722 0.02767032
-0.00331952 0.00467577 0.02766429
-0.00327827 -0.00221211 0.02772942
-0.00332055 0.00497741 0.02766266
-0.00328966 0.00274718 0.02771143
-0.00328616 -0.00073604 0.02771696
-0.00329214 0.00283084 0.02770752
-0.00330936 0.00414227 0.02768033
-0.00329771 0.00434909 0.02769872
-0.00327862 -0.00095413 0.02772886
-0.00330494 0.00310689 0.02768730
-0.00331681 0.00319520 0.02766857
-0.00329626 0.00022984 0.02770100
-0.00328414 0.00349944 0.02772015
-0.00328819 -0.00213651 0.02771375
-0.00330155 0.00121196 0.02769265
-0.00327886 0.00076923 0.02772848
-0.00329803 -0.00074260 0.02769821
-0.00327767 0.00328859 0.02773036
-0.00327984 -0.00276124 0.02772694
-0.00329489 0.00032359 0.02770317
-0.00330546 0.00166030 0.02768649
-0.00328411 -0.00191569 0.02772020
-0.00330913 0.00144317 0.02768069
-0.00328226 0.00506661 0.02772311
-0.00327646 0.00285001 0.02773228
-0.00327887 0.00031965 0.02772846
-0.00332691 0.00564267 0.02765262
-0.00329290 0.00417581 0.02770632
-0.00328242 -0.00350422 0.02772286
-0.00331238 0.00252653 0.02767556
-0.00328736 -0.00293700 0.02771507
-0.00329490 0.00363706 0.02770316
-0.00332207 0.00513730 0.02766026
-0.00328240 -0.00403363 0.02772289
-0.00332275 0.00565577 0.02765919
-0.00331620 0.00503107 0.02766953
-0.00330579 0.00394993 0.02768597
-0.00328262 0.00254840 0.02772255
-0.00330167 0.00256852 0.02769248
-0.00333095 0.00550305 0.02764623
-0.00331068 0.00480739 0.02767825
-0.00331576 0.00452130 0.02767022
-0.00330008 0.00135540 0.02769499
-0.00328012 0.00155367 0.02772649
-0.00330077 0.00174792 0.02769389
-0.00327867 0.00452805 0.02772878
-0.00328394 0.00115147 0.02772046
-0.00327615 0.00040674 0.02773276
-0.00328524 0.00011961 0.02771841
-0.00328197 0.00526776 0.02772358
-0.00329577 0.00177902 0.02770179
-0.00328526 0.00523756 0.02771837
-0.00329049 0.00437484 0.02771012
-0.00329481 0.00550460 0.02770330
-0.00330312 0.00517674 0.02769018
-0.00331030 0.00311733 0.02767885
-0.00330190 0.00003472 0.02769210
-0.00331989 0.00509971 0.02766371
-0.00332800 0.00521293 0.02765090
-0.00329680 0.00488641 0.02770015
-0.00330549 0.00178821 0.02768644
-0.00328024 -0.00394157 0.02772631
-0.00330182 0.00519251 0.02769223
-0.00327629 0.00345245 0.02773255
-0.00328465 0.00158782 0.02771934
-0.00327883 -0.00071094 0.02772854
-0.00330388 0.00154491 0.02768898
-0.00330629 0.00203373 0.02768517
-0.00328802 -0.00026124 0.02771402
-0.00328638 0.00216158 0.02771660
-0.00332163 0.00462604 0.02766095
-0.00328983 0.00073344 0.02771117
-0.00330820 0.00491957 0.02768216
-0.00327697 0.00271140 0.02773147
-0.00330619 0.00282271 0.02768534
-0.00331493 0.00277850 0.02767153
-0.00328574 0.00518159 0.02771762
-0.00329639 0.00069771 0.02770080
-0.00328840 0.00440688 0.02771342
-0.00330235 0.00466978 0.02769139
-0.00328073 0.00444015 0.02772553
-0.00327677 0.00419709 0.02773179
-0.00327943 -0.00045567 0.02772759
-0.00327967 0.00221875 0.02772720
-0.00328188 -0.00074313 0.02772372
-0.00329313 0.00185437 0.02770595
-0.00330004 0.00323601 0.02769504
-0.00328922 -0.00023030 0.02771212
-0.00330011 -0.00016630 0.02769493
-0.00328636 0.00225872 0.02771664
-0.00329224 -0.00177312 0.02770736
-0.00329917 -0.00059448 0.02769642
-0.00327974 0.00295026 0.02772710
-0.00330025 0.00262574 0.02769472
-0.00331457 0.00446218 0.02767210
-0.00327808 -0.00424760 0.02772972
-0.00331293 0.00310094 0.02767470
-0.00328773 0.00443215 0.02771447
-0.00331425 0.00532598 0.02767261
-0.00327786 0.00319825 0.02773007
-0.00328803 0.00046970 0.02771400
-0.00331131 0.00372922 0.02767725
-0.00328255 -0.00032117 0.02772265
-0.00330409 0.00404920 0.02768864
-0.00327953 -0.00400319 0.02772743
-0.00328778 -0.00189534 0.02771440
-0.00328641 -0.00147316 0.02771656
-0.00332235 0.00421047 0.02765982
-0.00328975 0.00093047 0.02771129
-0.00331728 0.00329797 0.02766783
-0.00329003 0.00276398 0.02771085
-0.00327754 -0.00399775 0.02773057
-0.00328368 0.00424650 0.02772088
-0.00332561 0.00451832 0.02765467
-0.00332487 0.00568985 0.02765584
-0.00330306 0.00274584 0.02769027
-0.00328334 -0.00132223 0.02772141
-0.00330189 -0.00018543 0.02769212
-0.00329147 0.00438272 0.02770857
-0.00327676 -0.00284243 0.02773180
-0.00330287 0.00055939 0.02769058
-0.00329361 0.00080514 0.02770519
-0.00332728 0.00529442 0.02765203
-0.00328144 0.00137458 0.02772442
-0.00327624 -0.00304195 0.02773262
-0.00327617 -0.00104730 0.02773274
-0.00329068 0.00217965 0.02770982
-0.00332582 0.00526125 0.02765433
-0.00327645 0.00544751 0.02773229
-0.00328869 0.00434136 0.02771297
-0.00330884 0.00317234 0.02768114
-0.00328916 0.00333656 0.02771222
-0.00327752 0.00434612 0.02773059
-0.00328988 0.00346318 0.02771108
-0.00330177 0.00392900 0.02769231
-0.00328512 0.00011607 0.02771861
-0.00328081 0.00340444 0.02772541
-0.00328194 0.00091593 0.02772363
-0.00327961 0.00088258 0.02772729
-0.00328218 -0.00232268 0.02772324
-0.00329784 0.00089384 0.02769851
-0.00332558 0.00444674 0.02765471
-0.00330305 0.00349895 0.02769029
-0.00329240 0.00012798 0.02770710
-0.00328550 0.00259379 0.02771801
-0.00329917 0.00401242 0.02769641
-0.00327867 -0.00397476 0.02772878
-0.00330309 0.00438684 0.02769023
-0.00328198 0.00056841 0.02772355
-0.00329374 0.00116062 0.02770499
-0.00327806 0.00022996 0.02772974
-0.00328525 0.00201914 0.02771839
-0.00328866 -0.00017104 0.02771301
-0.00329708 0.00118772 0.02769972
-0.00327718 0.00503326 0.02773114
-0.00328898 0.00187037 0.02771250
-0.00331339 0.00363726 0.02767397
-0.00329932 0.00145178 0.02769618
-0.00328283 0.00043421 0.02772222
-0.00331867 0.00426862 0.02766563
-0.00329137 0.00364601 0.02770873
-0.00329573 0.00531125 0.02770185
-0.00328232 0.00203942 0.02772301
-0.00329899 0.00029008 0.02769670
-0.00329885 0.00364920 0.02769693
-0.00330521 0.00183927 0.02768688
-0.00328094 0.00129173 0.02772520
-0.00329676 0.00002166 0.02770022
-0.00328392 -0.00103357 0.02772049
-0.00330023 0.00023562 0.02769474
-0.00330738 0.00268638 0.02768345
-0.00331104 0.00528045 0.02767767
-0.00327839 0.00495685 0.02772922
-0.00331567 0.00320275 0.02767036
-0.00329506 0.00502514 0.02770291
-0.00328241 -0.00366473 0.02772288
-0.00331669 0.00507119 0.02766875
-0.00330417 0.00519702 0.02768852
-0.00328404 -0.00285900 0.02772031
-0.00329612 0.00515140 0.02770123
-0.00327850 -0.00505378 0.02772906
-0.00328504 0.00321424 0.02771873
-0.00329774 0.00427697 0.02769868
-0.00327836 0.00234611 0.02772927
-0.00328677 -0.00042377 0.02771599
-0.00328388 -0.00312412 0.02772056
-0.00329542 -0.00128818 0.02770233
-0.00330296 0.00084704 0.02769043
-0.00329293 -0.00087702 0.02770627
-0.00328699 -0.00126263 0.02771564
-0.00328282 0.00000633 0.02772224
-0.00328858 0.00115354 0.02771313
-0.00329774 0.00300723 0.02769867
-0.00328502 0.00179931 0.02771876
-0.00327703 0.00131325 0.02773138
-0.00328473 0.00482862 0.02771922
-0.00328081 -0.00009783 0.02772540
-0.00330934 0.00502947 0.02768036
-0.00331692 0.00329012 0.02766839
-0.00328401 0.00279842 0.02772035
-0.00328137 0.00031711 0.02772451
-0.00327757 0.00078195 0.02773052
-0.00328218 0.00194813 0.02772325
-0.00329109 -0.00153758 0.02770917
-0.00328283 -0.00262470 0.02772221
-0.00329752 0.00275381 0.02769902
-0.00330254 0.00306223 0.02769109
-0.00329914 0.00280669 0.02769646
-0.00330068 -0.00015250 0.02769403
-0.00328856 -0.00096174 0.02771317
-0.00328535 -0.00164347 0.02771824
-0.00330274 0.00226652 0.02769079
-0.00332770 0.00557951 0.02765137
-0.00328776 -0.00072433 0.02771443
-0.00328617 -0.00256454 0.02771694
-0.00327793 0.00234759 0.02772996
-0.00329848 0.00330460 0.02769751
-0.00331620 0.00319350 0.02766953
-0.00329020 0.00206845 0.02771058
-0.00327832 -0.00064794 0.02772933
-0.00329525 0.00187489 0.02770260
-0.00328473 -0.00188415 0.02771922
-0.00329823 0.00236294 0.02769789
-0.00328076 0.00424709 0.02772549
-0.00329102 0.00051466 0.02770928
-0.00331935 0.00555499 0.02766456
-0.00332142 0.00411936 0.02766129
-0.00328922 -0.00075127 0.02771212
-0.00331411 0.00468490 0.02767283
-0.00328508 0.00018979 0.02771867
-0.00328165 -0.00087795 0.02772407
-0.00330313 0.00089962 0.02769017
-0.00330107 -0.00016467 0.02769342
-0.00328925 -0.00008521 0.02771208
-0.00333145 0.00464578 0.02764545
-0.00332927 0.00474798 0.02764889
-0.00332566 0.00333000 0.02765459
-0.00330296 -0.00345061 0.02769043
-0.00333014 0.00276005 0.02764752
-0.00330757 -0.00245566 0.02768316
-0.00332884 -0.00459352 0.02764957
-0.00332000 -0.00518770 0.02766353
-0.00329277 -0.00370320 0.02770652
-0.00330108 -0.00168293 0.02769339
-0.00332924 -0.00255371 0.02764893
-0.00332560 -0.00376138 0.02765469
-0.00333145 0.00379343 0.02764545
-0.00333098 0.00270723 0.02764619
-0.00332481 0.00073814 0.02765593
-0.00332590 0.00198847 0.02765421
-0.00330992 -0.00019841 0.02767944
-0.00327863 -0.00508263 0.02772885
-0.00331075 -0.00431650 0.02767814
-0.00330915 -0.00003252 0.02768066
-0.00330010 -0.00401045 0.02769495
-0.00333064 0.00188031 0.02764672
-0.00328931 -0.00312329 0.02771199
-0.00332157 -0.00445904 0.02766104
-0.00330813 -0.00272593 0.02768226
-0.00331039 -0.00251759 0.02767870
-0.00329648 -0.00271412 0.02770067
-0.00328126 -0.00554493 0.02772470
-0.00329557 -0.00255012 0.02770211
-0.00332153 -0.00418653 0.02766111
-0.00330305 -0.00495969 0.02769028
-0.00330729 -0.00458391 0.02768360
-0.00329714 -0.00214557 0.02769962
-0.00332461 0.00352188 0.02765625
-0.00330657 -0.00406231 0.02768473
-0.00332641 0.00404859 0.02765341
-0.00331439 -0.00146175 0.02767238
-0.00333011 -0.00406937 0.02764757
-0.00328952 -0.00335881 0.02771166
-0.00332982 -0.00498881 0.02764802
-0.00332420 0.00120512 0.02765690
-0.00332774 -0.00015790 0.02765131
-0.00331476 0.00106921 0.02767180
-0.00332569 -0.00212621 0.02765455
-0.00331278 0.00038548 0.02767492
-0.00331075 -0.00135637 0.02767814
-0.00331054 -0.00527092 0.02767847
-0.00331826 0.00056347 0.02766628
-0.00333290 -0.00461550 0.02764315
-0.00332944 0.00415838 0.02764862
-0.00333208 0.00319666 0.02764445
-0.00333255 0.00333054 0.02764370
-0.00333290 0.00281728 0.02764316
-0.00332724 -0.00500993 0.02765209
-0.00332055 -0.00456448 0.02766266
-0.00328414 -0.00549711 0.02772014
-0.00331217 -0.00006010 0.02767590
-0.00333185 -0.00272543 0.02764481
-0.00332327 -0.00347757 0.02765837
-0.00329520 -0.00216930 0.02770269
-0.00332376 -0.00199541 0.02765759
-0.00331026 0.00064840 0.02767891
-0.00331003 -0.00198499 0.02767926
-0.00331948 -0.00551411 0.02766435
-0.00331942 -0.00051149 0.02766445
-0.00328268 -0.00535180 0.02772245
-0.00333272 -0.00421315 0.02764344
-0.00331757 -0.00306665 0.02766736
-0.00332284 -0.00025443 0.02765905
-0.00331195 -0.00134188 0.02767624
-0.00332906 0.00174238 0.02764922
-0.00330378 -0.00175024 0.02768913
-0.00330222 -0.00495864 0.02769160
-0.00333005 -0.00219602 0.02764766
-0.00331468 -0.00101128 0.02767192
-0.00329967 -0.00373169 0.02769563
-0.00330527 -0.00338179 0.02768679
-0.00330857 0.00018056 0.02768157
-0.00330228 -0.00139186 0.02769150
-0.00330215 -0.00401707 0.02769171
-0.00333265 0.00332859 0.02764355
-0.00333100 0.00358996 0.02764616
-0.00330665 -0.00391713 0.02768460
-0.00331848 0.00187077 0.02766592
-0.00331096 0.00062579 0.02767780
-0.00333167 -0.00045285 0.02764510
-0.00330360 -0.00544879 0.02768942
-0.00328513 -0.00465892 0.02771859
-0.00333262 -0.00106588 0.02764361
-0.00328004 -0.00510826 0.02772662
-0.00330360 -0.00122364 0.02768943
-0.00331815 -0.00265512 0.02766644
-0.00327697 -0.00553462 0.02773146
-0.00331415 0.00178274 0.02767276
-0.00332963 -0.00049304 0.02764832
-0.00332430 0.00179119 0.02765673
-0.00329535 -0.00415873 0.02770245
-0.00329541 -0.00413741 0.02770236
-0.00332799 0.00331139 0.02765091
-0.00332203 0.00246408 0.02766032
-0.00331010 -0.00321214 0.02767915
-0.00331790 0.00193157 0.02766685
-0.00330378 -0.00045323 0.02768914
-0.00329481 -0.00263637 0.02770329
-0.00332426 0.00288513 0.02765681
-0.00332734 -0.00078263 0.02765194
-0.00333033 0.00115462 0.02764722
-0.00331952 0.00106299 0.02766429
-0.00328966 -0.00534270 0.02771143
-0.00329630 -0.00376868 0.02770095
-0.00331784 -0.00323453 0.02766694
-0.00330419 -0.00469014 0.02768849
-0.00330338 -0.00206717 0.02768977
-0.00329163 -0.00425625 0.02770832
-0.00330993 -0.00374262 0.02767942
-0.00332170 -0.00095318 0.02766084
-0.00333098 0.00243958 0.02764620
-0.00330005 -0.00508217 0.02769503
-0.00332826 0.00161633 0.02765049
-0.00332230 -0.00449340 0.02765990
-0.00332005 -0.00292935 0.02766345
-0.00330936 -0.00192142 0.02768032
-0.00328687 -0.00449774 0.02771584
-0.00332267 -0.00494391 0.02765931
-0.00332087 0.00064362 0.02766216
-0.00329882 -0.00340315 0.02769697
-0.00333212 -0.00537745 0.02764439
-0.00332557 0.00192705 0.02765473
-0.00331524 -0.00492350 0.02767104
-0.00330428 -0.00003598 0.02768834
-0.00333021 -0.00506171 0.02764740
-0.00331235 -0.00335468 0.02767560
-0.00331012 -0.00549853 0.02767912
-0.00330608 -0.00015460 0.02768550
-0.00330835 0.00041838 0.02768193
-0.00333001 -0.00444647 0.02764772
-0.00330216 -0.00517744 0.02769170
-0.00330164 -0.00386786 0.02769252
-0.00333206 0.00152079 0.02764448
-0.00331558 -0.00118906 0.02767050
-0.00328761 -0.00424451 0.02771467
-0.00330624 -0.00159344 0.02768526
-0.00328931 -0.00301771 0.02771198
-0.00333086 -0.00521002 0.02764638
-0.00333281 0.00231444 0.02764330
-0.00329596 -0.00330721 0.02770148
-0.00331977 -0.00391920 0.02766390
-0.00331685 -0.00022072 0.02766850
-0.00330213 -0.00189582 0.02769174
-0.00332017 -0.00383615 0.02766326
-0.00330755 -0.00339337 0.02768318
-0.00333018 -0.00499084 0.02764746
-0.00332754 -0.00133010 0.02765163
-0.00332047 0.00091626 0.02766278
-0.00330568 -0.00362941 0.02768613
-0.00330852 -0.00168576 0.02768165
-0.00333075 0.00376005 0.02764655
-0.00333245 -0.00035005 0.02764386
-0.00332931 -0.00345500 0.02764883
-0.00333063 0.00103148 0.02764674
-0.00331746 -0.00171307 0.02766754
-0.00332920 0.00090786 0.02764900
-0.00332858 0.00335506 0.02764999
-0.00329429 -0.00541854 0.02770412
-0.00331795 -0.00292400 0.02766677
-0.00333004 0.00284964 0.02764768
-0.00330198 -0.00368337 0.02769198
-0.00332745 -0.00069811 0.02765177
-0.00329015 -0.00540103 0.02771066
-0.00332599 0.00225115 0.02765408
-0.00331735 -0.00261989 0.02766770
-0.00333154 0.00196131 0.02764531
-0.00328993 -0.00312761 0.02771100
-0.00332991 -0.00544284 0.02764787
-0.00331644 -0.00458194 0.02766915
-0.00333281 0.00151068 0.02764331
-0.00331398 -0.00244350 0.02767304
-0.00332770 -0.00169261 0.02765136
-0.00332746 -0.00076723 0.02765175
-0.00329998 -0.00415460 0.02769513
-0.00333217 -0.00022795 0.02764431
-0.00331237 -0.00021235 0.02767557
-0.00331660 -0.00303104 0.02766890
-0.00333298 0.00342911 0.02764303
-0.00329767 -0.00331121 0.02769879
-0.00328295 -0.00435184 0.02772202
-0.00332861 -0.00483049 0.02764993
-0.00329835 -0.00213823 0.02769772
-0.00330893 -0.00099862 0.02768101
-0.00331748 0.00241932 0.02766751
-0.00330020 -0.00344425 0.02769480
-0.00332809 0.00447365 0.02765075
-0.00330546 -0.00526090 0.02768649
-0.00332391 0.00069308 0.02765735
-0.00330563 -0.00539288 0.02768622
-0.00332380 0.00223551 0.02765752
-0.00333087 0.00027062 0.02764637
-0.00332910 0.00098069 0.02764916
-0.00328849 -0.00491260 0.02771327
-0.00331186 0.00088115 0.02767638
-0.00329662 -0.00231215 0.02770044
-0.00333041 -0.00559631 0.02764710
-0.00331257 -0.00428161 0.02767526
-0.00332188 0.00045655 0.02766056
-0.00330555 -0.00525258 0.02768634
-0.00330291 -0.00236588 0.02769051
-0.00332552 0.00140306 0.02765481
-0.00332383 -0.00194020 0.02765748
-0.00331133 -0.00235566 0.02767722
-0.00329319 -0.00470091 0.02770586
-0.00330139 -0.00315176 0.02769291
-0.00330845 -0.00359388 0.02768176
-0.00328318 -0.00467927 0.02772166
-0.00331795 -0.00052763 0.02766676
-0.00330880 0.00073723 0.02768120
-0.00328536 -0.00539981 0.02771822
-0.00329794 -0.00288540 0.02769836
-0.00329447 -0.00207137 0.02770384
-0.00332219 -0.00329720 0.02766007
-0.00332605 -0.00168714 0.02765398
-0.00332373 -0.00137944 0.02765764
-0.00330447 -0.00158227 0.02768804
-0.00330176 -0.00054462 0.02769232
-0.00332959 0.00133561 0.02764839
-0.00330278 -0.00107699 0.02769072
-0.00330884 -0.00047750 0.02768115
-0.00330937 0.00094810 0.02768031
-0.00330121 -0.00074372 0.02769319
-0.00331955 0.00100598 0.02766424
-0.00332523 0.00415999 0.02765527
-0.00331617 0.00140687 0.02766957
-0.00332824 0.00128401 0.02765052
-0.00330338 -0.00452154 0.02768978
-0.00333106 0.00267723 0.02764607
-0.00331931 -0.00092543 0.02766462
-0.00331031 -0.00065071 0.02767882
-0.00330784 -0.00122382 0.02768273
-0.00331077 -0.00078416 0.02767810
-0.00331309 -0.00150122 0.02767444
-0.00331383 0.00149195 0.02767327
-0.00332763 0.00042541 0.02765148
-0.00331496 -0.00381421 0.02767148
-0.00332746 -0.00334914 0.02765175
-0.00332077 0.00279543 0.02766231
-0.00331033 0.00014868 0.02767880
-0.00330311 -0.00557725 0.02769019
-0.00329658 -0.00258543 0.02770050
-0.00332842 0.00375445 0.02765024
-0.00332774 -0.00332399 0.02765131
-0.00333237 0.00181824 0.02764399
-0.00333010 0.00394598 0.02764758
-0.00331650 -0.00411653 0.02766905
-0.00330644 -0.00502144 0.02768494
-0.00332724 -0.00215909 0.02765210
-0.00330202 -0.00240882 0.02769191
-0.00330497 -0.00412894 0.02768726
-0.00332722 -0.00535539 0.02765212
-0.00331939 -0.00110656 0.02766449
-0.00332390 0.00120113 0.02765737
-0.00332104 -0.00004607 0.02766188
-0.00329615 -0.00455965 0.02770118
-0.00332696 -0.00040870 0.02765254
-0.00331552 -0.00321885 0.02767060
-0.00331811 0.00106341 0.02766650
-0.00332851 -0.00479076 0.02765009
-0.00332859 -0.00372446 0.02764996
-0.00330211 -0.00423281 0.02769178
-0.00330546 -0.00056118 0.02768648
-0.00332722 0.00429919 0.02765213
-0.00332013 0.00020381 0.02766332
-0.00332884 0.00266216 0.02764956
-0.00330765 -0.00221127 0.02768303
-0.00329918 -0.00463738 0.02769640
-0.00329574 -0.00171272 0.02770183
-0.00330633 -0.00218530 0.02768511
-0.00329177 -0.00417869 0.02770810
-0.00329172 -0.00549337 0.02770817
-0.00330956 -0.00487626 0.02768001
-0.00331088 -0.00513672 0.02767793
-0.00332346 -0.00484629 0.02765806
-0.00331799 0.00014775 0.02766671
-0.00332553 0.00087595 0.02765480
-0.00331480 -0.00279134 0.02767173
-0.00332935 -0.00198970 0.02764876
-0.00330162 -0.00419709 0.02769255
-0.00331528 -0.00272477 0.02767099
-0.00332861 0.00469817 0.02764993
-0.00331228 -0.00305646 0.02767571
-0.00332395 -0.00514603 0.02765729
-0.00329726 -0.00337154 0.02769943
-0.00330587 -0.00505956 0.02768584
-0.00332664 -0.00341628 0.02765304
-0.00329627 -0.00521754 0.02770100
-0.00330168 -0.00183173 0.02769245
-0.00332655 0.00028269 0.02765319
-0.00332532 -0.00078021 0.02765513
-0.00332290 0.00268350 0.02765894
-0.00328926 -0.00310770 0.02771206
-0.00332059 -0.00350624 0.02766260
-0.00329818 -0.00447090 0.02769798
-0.00332853 -0.00300138 0.02765005
-0.00332670 0.00346039 0.02765295
-0.00238630 -0.00406604 0.03023834
-0.00007805 -0.00011554 0.03672634
-0.00132324 -0.00225221 0.03322152
-0.00125496 -0.00210295 0.03344168
-0.00244693 -0.00416395 0.03007303
-0.00071504 -0.00117341 0.03496406
-0.00207080 -0.00352999 0.03112173
-0.00022782 -0.00038397 0.03629483
-0.00160116 -0.00272901 0.03243935
-0.00032300 -0.00047823 0.03608711
-0.00056671 -0.00094843 0.03535581
-0.00063336 -0.00104365 0.03518490
-0.00096329 -0.00160101 0.03426391
-0.00037504 -0.00060281 0.03590989
-0.00106793 -0.00179663 0.03395537
-0.00019061 -0.00032348 0.03639662
-0.00036200 -0.00060062 0.03592899
-0.00085416 -0.00141964 0.03456594
-0.00085876 -0.00141539 0.03456359
-0.00163287 -0.00275591 0.03237408
-0.00125020 -0.00211478 0.03343765
-0.00163961 -0.00278302 0.03234155
-0.00058387 -0.00097439 0.03531056
-0.00130232 -0.00218005 0.03331202
-0.00089100 -0.00151822 0.03443143
-0.00228455 -0.00389181 0.03052442
-0.00109366 -0.00182594 0.03389589
-0.00145877 -0.00247716 0.03284669
-0.00084323 -0.00141691 0.03458275
-0.00174403 -0.00296193 0.03204789
-0.00143018 -0.00240414 0.03294804
-0.00047182 -0.00076765 0.03563855
-0.00221489 -0.00377525 0.03071790
-0.00056954 -0.00092844 0.03536950
-0.00237356 -0.00403709 0.03028038
-0.00030205 -0.00046773 0.03612390
-0.00077086 -0.00128052 0.03479708
-0.00104837 -0.00176767 0.03400643
-0.00197397 -0.00335566 0.03140140
-0.00124185 -0.00211824 0.03344565
-0.00121575 -0.00204549 0.03354349
-0.00127136 -0.00216889 0.03336258
-0.00028843 -0.00047801 0.03613291
-0.00128974 -0.00219915 0.03331196
-0.00193577 -0.00328339 0.03151478
-0.00044196 -0.00071324 0.03572536
-0.00047562 -0.00076359 0.03563708
-0.00004187 -0.00005071 0.03683057
-0.00021786 -0.00032120 0.03636266
-0.00088143 -0.00147667 0.03448026
-0.00228639 -0.00388661 0.03052653
-0.00004368 -0.00007033 0.03681109
-0.00136853 -0.00231162 0.03310999
-0.00099812 -0.00166685 0.03416058
-0.00057024 -0.00090746 0.03538687
-0.00272954 -0.00465740 0.02927016
-0.00084708 -0.00141062 0.03458314
-0.00091948 -0.00156919 0.03434944
-0.00192739 -0.00328454 0.03152484
-0.00095658 -0.00157618 0.03429440
-0.00116893 -0.00195604 0.03368322
-0.00045355 -0.00072609 0.03569887
-0.00011535 -0.00019583 0.03660716
-0.00252239 -0.00429963 0.02985524
-0.00287911 -0.00491016 0.02885256
-0.00182401 -0.00311314 0.03181059
-0.00100553 -0.00168634 0.03413383
-0.00044363 -0.00070158 0.03573332
-0.00037093 -0.00061554 0.03590421
-0.00086377 -0.00142478 0.03454879
-0.00037678 -0.00059780 0.03591196
-0.00286888 -0.00489140 0.02888240
-0.00061468 -0.00101994 0.03523021
-0.00133725 -0.00227543 0.03318281
-0.00197401 -0.00336883 0.03138987
-0.00195280 -0.00331457 0.03146514
-0.00218632 -0.00373142 0.03079378
-0.00181505 -0.00308898 0.03184346
-0.00023837 -0.00033769 0.03632123
-0.00068256 -0.00111642 0.03505658
-0.00147122 -0.00248137 0.03282660
-0.00127673 -0.00213782 0.03338257
-0.00282929 -0.00482993 0.02898820
-0.00206969 -0.00353133 0.03112203
-0.00118370 -0.00199209 0.03363231
-0.00080437 -0.00135031 0.03469205
-0.00014543 -0.00024630 0.03652349
-0.00194037 -0.00330983 0.03148567
-0.00025143 -0.00041283 0.03623851
-0.00171264 -0.00290115 0.03214226
-0.00070560 -0.00117652 0.03497380
-0.00136512 -0.00232488 0.03310295
-0.00085807 -0.00143508 0.03454733
-0.00160769 -0.00273673 0.03242401
-0.00011912 -0.00019387 0.03660389
-0.00246020 -0.00419698 0.03002673
-0.00113288 -0.00188584 0.03379195
-0.00153062 -0.00257518 0.03266648
-0.00047609 -0.00078813 0.03561508
-0.00049448 -0.00078486 0.03559365
-0.00151276 -0.00256824 0.03269609
-0.00055066 -0.00093299 0.03539044
-0.00188717 -0.00319609 0.03165498
-0.00058973 -0.00095789 0.03531720
-0.00004805 -0.00006090 0.03681354
-0.00206898 -0.00350330 0.03114739
-0.00154588 -0.00263268 0.03259623
-0.00096258 -0.00161243 0.03425490
-0.00089057 -0.00148136 0.03446413
-0.00093261 -0.00158602 0.03431744
-0.00202709 -0.00345723 0.03124280
-0.00016252 -0.00025671 0.03649187
-0.00238345 -0.00406803 0.03024038
-0.00043720 -0.00070974 0.03573470
-0.00244791 -0.00416821 0.03006802
-0.00108373 -0.00180143 0.03393036
-0.00014897 -0.00023224 0.03653107
-0.00099732 -0.00165807 0.03416929
-0.00036065 -0.00061271 0.03592024
-0.00219055 -0.00373963 0.03078105
-0.00058684 -0.00098723 0.03529545
-0.00234258 -0.00403850 0.03032046
-0.00286704 -0.00496413 0.02882223
-0.00131967 -0.00227865 0.03320349
-0.00098567 -0.00168787 0.03415874
-0.00289251 -0.00495891 0.02879262
-0.00325784 -0.00557343 0.02777500
-0.00270223 -0.00464642 0.02931613
-0.00193951 -0.00332962 0.03146977
-0.00205131 -0.00352383 0.03115305
-0.00187341 -0.00323365 0.03164079
-0.00283127 -0.00485145 0.02896703
-0.00180237 -0.00311095 0.03184143
-0.00131924 -0.00228469 0.03319886
-0.00163538 -0.00282329 0.03231240
-0.00064136 -0.00110413 0.03512174
-0.00149829 -0.00258394 0.03270179
-0.00316277 -0.00542573 0.02802931
-0.00170067 -0.00292590 0.03213673
-0.00075274 -0.00129573 0.03480784
-0.00124026 -0.00213946 0.03342950
-0.00278251 -0.00480796 0.02906970
-0.00154403 -0.00266497 0.03257086
-0.00317357 -0.00543642 0.02800566
-0.00277435 -0.00480076 0.02908683
-0.00238360 -0.00408379 0.03022659
-0.00248933 -0.00431108 0.02988955
-0.00257867 -0.00443927 0.02965969
-0.00217129 -0.00374127 0.03080542
-0.00305076 -0.00522428 0.02835252
-0.00297560 -0.00514591 0.02852056
-0.00229202 -0.00395568 0.03045937
-0.00274922 -0.00472828 0.02918281
-0.00258509 -0.00443219 0.02965720
-0.00310552 -0.00535413 0.02816754
-0.00321171 -0.00555795 0.02785007
-0.00171892 -0.00295091 0.03209079
-0.00318202 -0.00546425 0.02797041
-0.00077025 -0.00132218 0.03476166
-0.00254861 -0.00438487 0.02974673
-0.00291853 -0.00500517 0.02871801
-0.00084430 -0.00145553 0.03454783
-0.00177537 -0.00305628 0.03192459
-0.00248635 -0.00428710 0.02991418
-0.00245869 -0.00423126 0.02999923
-0.00294627 -0.00505932 0.02863429
-0.00156015 -0.00267516 0.03254051
-0.00245199 -0.00422571 0.03001297
-0.00212176 -0.00363121 0.03096638
-0.00301236 -0.00519065 0.02843286
-0.00258454 -0.00441930 0.02966903
-0.00300116 -0.00513628 0.02849462
-0.00314392 -0.00542821 0.02805240
-0.00246605 -0.00423353 0.02998743
-0.00225843 -0.00390614 0.03054695
-0.00326707 -0.00564767 0.02769879
-0.00253974 -0.00437447 0.02976755
-0.00322943 -0.00551944 0.02785947
-0.00250980 -0.00431598 0.02985795
-0.00280899 -0.00486180 0.02898796
-0.00312726 -0.00535174 0.02814049
-0.00203193 -0.00348700 0.03121068
-0.00322622 -0.00553963 0.02784640
-0.00311576 -0.00537438 0.02813640
-0.00184216 -0.00316401 0.03174252
-0.00176616 -0.00304876 0.03194338
-0.00326229 -0.00562676 0.02772318
-0.00295527 -0.00509883 0.02858826
-0.00172713 -0.00297352 0.03206034
-0.00206453 -0.00357242 0.03109357
-0.00111882 -0.00192853 0.03377350
-0.00155921 -0.00266683 0.03254893
-0.00239775 -0.00409433 0.03019858
-0.00206299 -0.00357129 0.03109659
-0.00058421 -0.00100493 0.03528358
-0.00319826 -0.00546970 0.02794398
-0.00243775 -0.00417719 0.03007377
-0.00147875 -0.00255542 0.03275247
-0.00206061 -0.00356280 0.03110709
-0.00257622 -0.00442733 0.02967324
-0.00185429 -0.00317543 0.03171647
-0.00086042 -0.00147503 0.03450948
-0.00161328 -0.00277844 0.03238055
-0.00071435 -0.00122333 0.03492152
-0.00276221 -0.00472841 0.02916531
-0.00246624 -0.00424902 0.02997385
-0.00215363 -0.00367798 0.03088350
-0.00052066 -0.00089184 0.03546592
-0.00298646 -0.00514426 0.02850743
-0.00081705 -0.00141321 0.03462070
-0.00151240 -0.00259306 0.03267505
-0.00236566 -0.00407962 0.03025419
-0.00224274 -0.00385019 0.03061608
-0.00309540 -0.00533951 0.02819366
-0.00175301 -0.00302228 0.03198377
-0.00096828 -0.00165620 0.03420926
-0.00201609 -0.00347205 0.03124474
-0.00302630 -0.00518939 0.02841528
-0.00191292 -0.00329242 0.03153735
-0.00225153 -0.00387905 0.03057949
-0.00282251 -0.00488226 0.02895226
-0.00191864 -0.00328634 0.03153493
-0.00303092 -0.00520547 0.02839526
-0.00246454 -0.00425228 0.02997331
-0.00157814 -0.00270750 0.03248862
-0.00312585 -0.00536907 0.02812747
-0.00184797 -0.00317463 0.03172562
-0.00210471 -0.00361324 0.03100466
-0.00251984 -0.00432549 0.02983632
-0.00233234 -0.00398533 0.03037991
-0.00300586 -0.00515221 0.02847462
-0.00262933 -0.00451723 0.02952484
-0.00278672 -0.00481716 0.02905616
-0.00243569 -0.00415981 0.03009147
-0.00184131 -0.00316600 0.03174194
-0.00198261 -0.00339217 0.03135827
-0.00321023 -0.00553761 0.02786955
-0.00110836 -0.00191309 0.03380078
-0.00140804 -0.00241701 0.03296618
-0.00062271 -0.00107690 0.03517013
-0.00106933 -0.00183828 0.03391737
-0.00044631 -0.00069671 0.03574272
-0.00174526 -0.00295920 0.03207871
-0.00233615 -0.00397580 0.03040078
-0.00165887 -0.00282341 0.03233544
-0.00217663 -0.00373569 0.03088425
-0.00198636 -0.00337227 0.03139252
-0.00040269 -0.00061733 0.03586275
-0.00163950 -0.00277513 0.03237717
-0.00184690 -0.00313621 0.03179200
-0.00264617 -0.00452990 0.02953882
-0.00063773 -0.00102761 0.03520053
-0.00251904 -0.00433363 0.02991978
-0.00038587 -0.00059091 0.03591273
-0.00186896 -0.00317759 0.03173237
-0.00304424 -0.00524099 0.02843170
-0.00111592 -0.00187328 0.03386302
-0.00143572 -0.00241191 0.03294460
-0.00250748 -0.00426618 0.02991037
-0.00309916 -0.00529764 0.02824218
-0.00217485 -0.00370117 0.03086138
-0.00039671 -0.00061405 0.03588595
-0.00314215 -0.00536782 0.02811674
-0.00127770 -0.00215104 0.03340309
-0.00256671 -0.00437651 0.02974965
-0.00271252 -0.00464391 0.02935031
-0.00263473 -0.00451211 0.02957298
-0.00233416 -0.00401596 0.03044514
-0.00187876 -0.00319448 0.03170460
-0.00314036 -0.00539599 0.02814955
-0.00228989 -0.00391560 0.03054934
-0.00196673 -0.00335777 0.03146537
-0.00199418 -0.00339844 0.03138161
-0.00179053 -0.00302240 0.03193713
-0.00187632 -0.00319624 0.03171682
-0.00169839 -0.00288001 0.03221308
-0.00283634 -0.00487690 0.02901639
-0.00190583 -0.00325874 0.03164344
-0.00197499 -0.00336571 0.03143637
-0.00319174 -0.00550255 0.02801979
-0.00245828 -0.00420598 0.03007178
-0.00044273 -0.00069292 0.03575498
-0.00275442 -0.00471033 0.02922626
-0.00177972 -0.00303721 0.03199748
-0.00271016 -0.00464889 0.02936502
-0.00298756 -0.00515792 0.02860550
-0.00222225 -0.00380203 0.03074391
-0.00303276 -0.00520149 0.02844678
-0.00294881 -0.00506350 0.02869090
-0.00267326 -0.00458199 0.02946675
-0.00290560 -0.00502204 0.02884279
-0.00182624 -0.00308557 0.03183727
-0.00268282 -0.00460850 0.02944857
-0.00301648 -0.00519908 0.02851575
-0.00258675 -0.00441790 0.02969888
-0.00246672 -0.00421890 0.03004641
-0.00244906 -0.00417176 0.03008166
-0.00171591 -0.00292332 0.03217503
-0.00273015 -0.00468499 0.02930974
-0.00172631 -0.00291346 0.03212087
-0.00236803 -0.00406416 0.03034002
-0.00238989 -0.00409577 0.03027262
-0.00197723 -0.00337262 0.03143271
-0.00197224 -0.00334769 0.03143236
-0.00154094 -0.00261316 0.03266378
-0.00087635 -0.00144082 0.03452532
-0.00283510 -0.00486333 0.02900977
-0.00296441 -0.00507615 0.02863402
-0.00319558 -0.00550171 0.02800227
-0.00208535 -0.00357306 0.03113849
-0.00232423 -0.00395199 0.03043171
-0.00243976 -0.00417227 0.03012273
-0.00230871 -0.00397155 0.03051683
-0.00063411 -0.00102206 0.03521140
-0.00324073 -0.00555755 0.02785465
-0.00325857 -0.00561839 0.02783078
-0.00217265 -0.00370598 0.03087523
-0.00177781 -0.00302903 0.03199856
-0.00146888 -0.00246531 0.03284722
-0.00288496 -0.00495257 0.02887125
-0.00328469 -0.00566956 0.02776213
-0.00251743 -0.00433980 0.02993228
-0.00303082 -0.00517920 0.02843545
-0.00131362 -0.00222095 0.03330831
-0.00147841 -0.00250923 0.03284461
-0.00208647 -0.00357138 0.03113211
-0.00163227 -0.00277609 0.03240957
-0.00062010 -0.00100425 0.03525678
-0.00104476 -0.00173849 0.03405413
-0.00215432 -0.00367181 0.03092499
-0.00311129 -0.00537421 0.02825717
-0.00171670 -0.00290520 0.03215552
-0.00281600 -0.00485611 0.02908677
-0.00277579 -0.00474263 0.02916162
-0.00160917 -0.00271623 0.03245733
-0.00246342 -0.00418771 0.03003311
-0.00274958 -0.00472434 0.02925985
-0.00091462 -0.00152163 0.03442993
-0.00130578 -0.00220917 0.03333209
-0.00137228 -0.00232184 0.03314173
-0.00328436 -0.00563039 0.02772880
-0.00299172 -0.00511325 0.02854767
-0.00096793 -0.00161487 0.03427988
-0.00048584 -0.00076670 0.03563222
-0.00309793 -0.00535866 0.02830173
-0.00314245 -0.00538929 0.02813450
-0.00119753 -0.00201932 0.03363626
-0.00108484 -0.00181237 0.03394467
-0.00166724 -0.00283028 0.03230499
-0.00150818 -0.00253997 0.03274186
-0.00263904 -0.00455064 0.02958837
-0.00247153 -0.00425854 0.03006057
-0.00128396 -0.00215282 0.03337737
-0.00325711 -0.00563710 0.02785377
-0.00327189 -0.00562062 0.02777459
-0.00305282 -0.00520981 0.02836657
-0.00319943 -0.00552150 0.02800305
-0.00261763 -0.00445884 0.02960036
-0.00214814 -0.00365251 0.03093481
-0.00278227 -0.00479307 0.02917810
-0.00124187 -0.00207715 0.03349396
-0.00064249 -0.00103276 0.03518432
-0.00023575 -0.00033061 0.03633722
-0.00205101 -0.00348110 0.03120683
-0.00091843 -0.00151744 0.03440956
-0.00159238 -0.00269582 0.03251252
-0.00259537 -0.00444006 0.02968091
-0.00300219 -0.00512118 0.02850897
-0.00188273 -0.00318610 0.03167980
-0.00136874 -0.00230387 0.03314123
-0.00104587 -0.00173842 0.03404920
-0.00154786 -0.00260974 0.03263054
-0.00122853 -0.00207066 0.03354647
-0.00295361 -0.00510502 0.02870679
-0.00218531 -0.00373873 0.03084903
-0.00309544 -0.00531441 0.02827330
-0.00186605 -0.00316261 0.03173178
-0.00309734 -0.00533238 0.02828095
-0.00167771 -0.00285951 0.03228522
-0.00096369 -0.00161027 0.03429434
-0.00282956 -0.00485823 0.02902944
-0.00291974 -0.00499409 0.02875622
-0.00253325 -0.00433997 0.02986332
-0.00123021 -0.00206021 0.03352986
-0.00226650 -0.00387691 0.03061714
-0.00286769 -0.00493084 0.02892739
-0.00302080 -0.00516328 0.02846508
-0.00267398 -0.00459646 0.02947649
-0.00276459 -0.00476241 0.02922812
-0.00239735 -0.00412080 0.03026226
-0.00252412 -0.00429425 0.02986260
-0.00300642 -0.00518710 0.02854906
-0.00222276 -0.00381611 0.03075421
-0.00257512 -0.00438613 0.02972148
-0.00168819 -0.00284985 0.03223084
-0.00329057 -0.00565963 0.02772762
-0.00304987 -0.00527088 0.02843366
-0.00137514 -0.00232038 0.03312793
-0.00243302 -0.00415439 0.03013629
-0.00159489 -0.00271326 0.03251705
-0.00306225 -0.00528519 0.02839231
-0.00317108 -0.00543108 0.02804657
-0.00213219 -0.00361341 0.03096975
-0.00197784 -0.00338973 0.03144524
-0.00236871 -0.00404472 0.03031975
-0.00281594 -0.00485487 0.02908591
-0.00273403 -0.00466861 0.02927826
-0.00318594 -0.00550873 0.02805059
-0.00316207 -0.00544712 0.02810015
-0.00114565 -0.00190378 0.03376027
-0.00305460 -0.00525180 0.02839607
-0.00211993 -0.00362952 0.03103763
-0.00072331 -0.00117605 0.03495860
-0.00206554 -0.00351018 0.03116919
-0.00261174 -0.00446634 0.02963275
-0.00276582 -0.00477568 0.02923452
-0.00308731 -0.00533880 0.02833048
-0.00134293 -0.00226860 0.03322260
-0.00305218 -0.00524682 0.02840221
-0.00062981 -0.00101073 0.03522014
-0.00028843 -0.00041945 0.03618605
-0.00248750 -0.00424869 0.02998207
-0.00311898 -0.00534348 0.02819632
-0.00318071 -0.00543865 0.02801123
-0.00294122 -0.00508066 0.02873930
-0.00126771 -0.00212922 0.03342737
-0.00326673 -0.00559493 0.02777433
-0.00284988 -0.00489474 0.02897309
-0.00316209 -0.00542274 0.02807840
-0.00078855 -0.00128609 0.03477135
-0.00266811 -0.00459376 0.02949973
-0.00229321 -0.00391297 0.03053253
-0.00301293 -0.00513909 0.02847797
-0.00253916 -0.00432483 0.02982409
-0.00263935 -0.00453671 0.02957464
-0.00219892 -0.00375086 0.03080037
-0.00165555 -0.00281185 0.03233966
-0.00247091 -0.00425368 0.03005899
-0.00066097 -0.00107182 0.03513829
-0.00315999 -0.00539968 0.02806712
-0.00269367 -0.00462612 0.02941681
-0.00175172 -0.00298985 0.03207773
-0.00174031 -0.00295320 0.03209502
-0.00272525 -0.00469287 0.02933816
-0.00102027 -0.00169183 0.03411965
-0.00311262 -0.00535352 0.02823300
-0.00135035 -0.00226900 0.03319056
-0.00182938 -0.00309666 0.03183337
-0.00273148 -0.00468196 0.02930129
-0.00296396 -0.00509870 0.02865597
-0.00245106 -0.00419813 0.03009635
-0.00301089 -0.00515285 0.02849912
-0.00175476 -0.00298821 0.03206297
-0.00211499 -0.00358855 0.03102278
-0.00280732 -0.00482730 0.02909912
-0.00070813 -0.00115781 0.03500867
-0.00300209 -0.00512737 0.02851492
-0.00177196 -0.00302850 0.03202366
-0.00163965 -0.00277376 0.03237528
-0.00198629 -0.00339131 0.03140973
-0.00243162 -0.00415189 0.03014018
-0.00225553 -0.00384526 0.03063696
-0.00291443 -0.00500521 0.02878931
-0.00312056 -0.00538500 0.02822628
-0.00285705 -0.00489517 0.02894216
-0.00117285 -0.00196327 0.03369430
-0.00235132 -0.00400106 0.03035697
-0.00322337 -0.00554637 0.02792058
-0.00186896 -0.00317432 0.03172950
-0.00327851 -0.00561152 0.02773761
-0.00314211 -0.00538103 0.02812864
-0.00278637 -0.00476152 0.02913217
-0.00302203 -0.00520770 0.02849915
-0.00266821 -0.00456349 0.02947238
-0.00282057 -0.00480770 0.02902382
-0.00272019 -0.00465871 0.02932992
-0.00268739 -0.00461044 0.02943031
-0.00224655 -0.00382667 0.03065970
-0.00114002 -0.00190486 0.03378582
-0.00257515 -0.00443109 0.02976127
-0.00251068 -0.00431741 0.02994185
-0.00214779 -0.00365063 0.03093469
-0.00233950 -0.00400279 0.03041011
-0.00206449 -0.00349708 0.03116212
-0.00187799 -0.00320066 0.03171342
-0.00255585 -0.00436258 0.02978472
-0.00072606 -0.00118656 0.03495591
